# 3D point list with one line of data per point:
#   POINT3D_ID, X, Y, Z, R, G, B, ERROR, TRACK[] as (IMAGE_ID, POINT2D_IDX)
# Number of points: 639, mean track length: 4.4789
8583 -1.48036 -0.248146 8.0052 94 70 47 1.57488 13 2366 12 5398 9 9447
8582 -1.09173 2.06367 6.13447 132 99 66 1.79232 2 5028 12 5356 9 9151
8581 -1.24644 1.31585 6.77123 94 63 34 1.54568 13 7745 15 681 12 5344 9 9254
8580 -1.15689 0.824574 7.21395 92 65 38 1.2203 2 1454 12 5330 9 6625
8579 -1.27128 0.393898 7.51496 81 56 34 1.49915 10 7112 9 9350 2 4761
8578 -1.30076 -0.043896 7.86377 85 63 42 1.59073 2 4758 12 5317 9 9391
8577 -1.58394 -1.27781 8.10458 153 139 113 0.112345 2 4590 12 5311
8576 -0.882403 3.53277 4.93174 140 109 78 0.956143 2 5312 12 5301 9 9063
8575 -0.928123 3.06955 5.32998 159 128 100 0.748088 2 5171 12 5293 9 9083
8573 -1.02868 1.20493 6.87451 66 40 13 2.42871 10 7401 12 5265 9 10693
8572 -0.9055 0.951435 7.08047 59 34 12 1.52995 13 7362 12 5261 9 10692
8571 -0.913222 0.867278 7.14324 28 10 3 2.36245 5 1390 12 5257 9 9179
8570 -1.04607 0.316058 7.61334 25 8 3 1.79921 2 4684 12 5250 9 9294
8568 -0.724642 3.46001 4.98973 137 106 77 1.43511 2 5174 12 5226 9 9029
8567 -0.643068 2.8107 5.53391 162 128 101 1.08923 13 7944 12 5209 9 6194
8565 -0.723993 2.17133 6.05776 97 66 38 1.43159 13 7657 12 5199 9 9092
8563 -0.356867 3.77723 4.69975 169 131 95 1.32865 2 4952 12 5172 9 6049
8562 -0.522103 3.63643 4.84727 160 126 98 1.96921 10 8463 14 4486 12 5169 9 8985 8 3712
8560 -0.519265 2.4635 5.77738 124 98 81 0.400778 2 4791 12 5141
8559 -0.195814 3.31169 5.12165 136 102 76 1.96392 2 6912 12 5117 9 6018
8558 -0.370797 2.53544 5.75097 122 95 78 1.1431 2 4793 12 5106 9 9043
8557 -0.0875643 3.6855 4.79849 143 108 80 0.881096 13 7802 12 5084 9 5969 14 3310
8556 -0.0697696 3.62339 4.84192 144 109 81 1.31344 13 7796 12 5081 9 5963
8553 -0.0240421 3.15177 5.2487 143 108 83 0.902338 1 4708 2 4699 12 5064 9 8943
8551 0.0858148 3.77901 4.71857 133 98 70 1.3828 6 5860 12 5027
8548 0.30648 3.76231 4.70788 134 99 72 0.966586 2 4621 12 4953 9 8848
8547 0.374885 3.45814 4.95386 112 87 74 1.35343 12 4943 9 5887
8546 0.442496 3.47637 4.97096 115 87 75 1.073 13 7384 12 4941 9 8842
8544 0.797359 3.40626 5.02132 109 85 73 0.623066 2 914 12 4840 9 5735 1 4947
8543 0.933573 3.39318 5.04439 110 87 77 0.768017 2 4383 12 4834
8542 1.24125 3.58692 4.86079 139 108 88 0.516595 2 6640 12 4764 9 8712
8541 1.25767 3.32394 5.09952 121 101 92 0.688976 2 4173 12 4756 9 8709
8540 1.0284 3.2186 5.18155 109 90 83 0.587107 2 6634 12 4755 9 8753 7 9638 8 6956
8538 1.0022 2.84652 5.49881 157 134 120 1.57251 2 4270 12 4744 9 8812
8537 1.22054 2.58711 5.66725 149 131 129 0.300652 13 6807 12 4730
8536 1.38929 3.68844 4.76833 132 105 86 0.412855 2 4181 12 4692 9 8667
8535 1.37948 3.13304 5.25699 112 99 93 1.21861 2 4168 12 4683 9 8708
8534 1.74542 3.59603 4.84647 125 99 84 1.46174 1 5933 12 4619 9 8598 8 5982
8533 1.74722 3.41789 4.97752 127 103 93 2.6871 2 4049 12 4611
8532 10.7581 13.3374 7.3934 89 90 76 0.986325 2 4131 9 8605
8531 11.1193 13.2966 7.39173 146 145 127 0.632577 2 4023 9 5356
8530 11.434 13.2795 7.44106 155 153 140 0.528226 2 4019 9 5350
8529 10.484 10.9642 8.07431 101 101 91 1.08664 2 3931 12 4474
8527 2.47186 3.46874 4.94587 161 139 128 1.30076 13 6497 12 4437 9 5199 2 286
8526 4.12361 3.15683 5.14958 250 251 246 1.66346 13 9531 12 4266
8525 -2.4081 7.95192 11.2838 54 50 39 2.06625 11 2970 12 4185
8524 -2.3119 8.14317 11.1431 44 41 32 0.546145 11 3209 12 4058
8523 -3.55894 0.434132 7.47157 86 56 30 0.306777 10 5176 9 10267
8522 -1.96848 8.65279 10.7426 36 37 29 1.73306 1 4273 12 3904
8521 -1.83569 8.55256 10.8217 32 33 27 1.01298 1 4277 12 3899
8520 -2.00727 7.91242 11.3097 112 106 94 0.365226 11 5631 12 3881
8519 -3.35563 0.876206 7.10183 111 81 55 0.885456 13 5776 9 10099
8518 -3.47182 0.633574 7.29591 80 54 29 1.37751 2 3376 12 3812 9 8049
8516 -3.357 0.624131 7.31028 70 45 22 0.716827 2 3234 9 10147
8515 -3.16185 0.745817 7.21141 112 82 54 1.88608 2 3104 12 3593 9 7804
8514 -3.23543 0.235374 7.62888 88 58 30 1.72104 2 2970 12 3579 9 10145
8513 -2.87956 1.53762 6.57307 123 88 60 1.1706 2 3139 12 3492 9 7423
8512 -3.03858 1.02704 6.99329 69 42 21 0.0663599 13 5563 9 7594
8511 -3.03858 1.02704 6.99329 69 42 21 0.0663599 13 5564 9 7595
8510 -2.94832 0.941212 7.059 80 52 31 2.04192 2 2986 12 3472 9 7588
8509 -2.79045 1.32403 6.75757 129 94 64 1.90691 13 5311 12 3336 9 7412
8508 -2.89655 1.06505 6.96665 118 86 61 0.0937358 2 2997 12 3329
8507 -2.85434 0.636973 7.30941 107 80 54 1.36057 2 2858 12 3310 9 7573
8506 -2.9212 0.0134135 7.8189 75 49 26 1.1787 2 2688 12 3301 9 7787
8505 -2.95272 -0.322262 8.0899 120 87 56 0.972808 2 5657 12 3295 9 10080 13 4167
8504 -2.60737 1.67293 6.47333 144 109 72 2.24238 2 3014 10 5449 12 3209 9 3123
8503 -2.73472 0.853774 7.13378 113 83 55 1.58066 2 2860 12 3180 9 7475
8502 -2.69796 0.883765 7.11043 72 45 24 0.999342 2 2718 12 3178 9 7400
8501 -2.78696 0.605829 7.3332 115 84 56 1.27688 2 2706 12 3169 9 7571
8500 -2.69434 0.487447 7.42865 70 46 25 0.574454 2 2700 12 3158 9 9836
8499 -2.82456 -0.460731 8.20204 115 85 57 2.05321 2 2403 12 3142 9 10016
8498 -2.60628 1.13874 6.9089 69 43 20 1.57173 13 4742 12 3039 9 7312
8497 -2.61169 0.777923 7.19504 113 82 54 1.40245 2 2708 12 3028 9 9779
8496 -2.60441 0.793116 7.18975 71 46 26 0.49825 13 4437 12 3027 9 7389
8495 -2.60441 0.793116 7.18975 71 46 26 0.49825 13 4436 12 3026 9 7388
8494 -2.56684 0.535261 7.39946 70 43 22 0.532541 13 4193 12 3012 9 7383
8493 -2.54377 0.530076 7.40074 79 53 29 1.26599 2 2572 12 3011 9 7382
8492 -2.41189 1.15179 6.89151 81 50 26 0.24851 2 2601 12 2921 9 7207
8491 -2.46532 1.10703 6.93676 112 82 56 0.353058 2 2600 12 2914 9 7202
8490 -2.43871 0.955949 7.05278 113 82 54 0.596088 13 4455 12 2905 9 7304
8489 -2.34996 0.826178 7.16046 118 87 58 1.58895 2 2426 12 2903 9 7196
8488 -2.48418 0.529836 7.41347 75 51 27 1.75003 2 2416 5 1833 12 2891
8487 -2.41929 0.0959004 7.7375 120 89 58 1.30707 2 2237 12 2880 9 7375
8486 -2.55524 -0.0232889 7.8461 101 73 46 1.19339 2 2412 12 2877 9 7462
8485 -2.53171 -0.0247736 7.84544 114 84 58 0.902643 2 2236 12 2874 9 7459
8484 -2.5613 -0.197206 7.98716 111 80 52 1.0854 2 2234 12 2872 9 7559
8483 -2.26753 1.26628 6.80627 93 62 34 1.07123 2 2440 12 2815 9 7106
8482 -2.22465 0.722511 7.25334 83 53 27 2.11713 2 2248 12 2787 9 7183
8481 -2.35726 0.50531 7.41275 74 46 24 1.53208 13 3976 12 2783 9 7291
8480 -2.35726 0.50531 7.41275 74 46 24 1.53208 13 3975 12 2782 9 7290
8479 -2.30318 0.0694371 7.76129 115 84 53 0.963756 13 3385 12 2771 9 7374
8478 -2.26468 0.0658098 7.77053 117 86 55 0.976405 13 3383 12 2770 9 9693 2 2053
8477 -2.26468 0.0658098 7.77053 117 86 55 0.976405 2 2054 13 3384 12 2769 9 9694
8476 -2.05921 1.33169 6.75022 95 60 30 1.1645 13 4237 12 2694 9 6908
8475 -2.11215 1.18526 6.87435 128 93 65 0.973354 2 2274 12 2692 9 6995
8474 -1.9991 1.09652 6.94054 103 67 33 1.77868 13 4011 12 2689 9 6989
8473 -2.05704 0.72862 7.23676 87 55 30 1.44284 13 3751 12 2669 9 9560
8472 -2.13037 0.720419 7.23819 115 81 53 2.07913 13 3743 12 2668 9 9565
8471 -2.15868 0.623475 7.33072 113 83 54 0.688642 2 2245 12 2667 9 7179
8470 -2.25302 -0.122278 7.92887 73 47 24 1.54591 2 2042 12 2653 9 7365
8469 -1.84587 1.48825 6.63146 95 63 34 0.950326 10 8030 13 4024 12 2589
8468 -1.92656 1.23419 6.83064 124 90 58 0.760814 10 3848 12 2581 9 2557
8467 -1.91536 1.1068 6.9176 126 92 57 1.86718 2 2086 13 3779 12 2578
8466 -1.96824 0.689446 7.26191 67 41 18 2.25529 13 3746 12 2560 9 6974
8465 -1.70827 1.3552 6.72698 122 89 58 1.51606 2 5262 10 3852 12 2450
8464 -1.67137 1.10578 6.94185 82 52 26 1.91082 13 7883 12 2444 9 9416
8463 -1.69838 0.804547 7.20453 76 49 25 1.11189 2 1790 12 2430 9 6891
8462 -1.70291 0.752852 7.2509 115 80 52 0.986666 2 1789 12 2426 9 6883
8461 -1.78192 0.695385 7.28105 117 84 53 1.50235 2 1922 12 2422 9 6885
8460 -1.80983 0.506778 7.41471 113 79 52 1.95438 2 1778 13 3109 12 2419 9 6964
8459 -1.72171 0.347231 7.59084 106 75 44 0.525205 12 2408 9 9500
8458 -1.85988 0.118023 7.73246 117 84 52 0.812298 2 1768 12 2405 9 7073
8457 -1.82925 -0.182197 7.98153 95 68 39 2.01438 10 2266 13 2563 12 2403
8456 -1.41919 1.86737 6.31613 93 62 31 0.855344 3 1208 13 3823 12 2326
8455 -1.56305 1.20996 6.86172 83 53 25 1.28936 13 3436 9 9367
8454 -1.59357 1.14233 6.93246 85 55 29 0.868591 2 1805 12 2304 9 6716
8453 -1.45588 1.09935 6.97724 84 56 29 1.20331 2 1799 12 2297 9 6705
8452 -1.45588 1.09935 6.97724 84 56 29 1.20331 2 1800 12 2296 9 6704
8451 -1.52463 0.930582 7.08318 78 50 28 2.09039 13 3140 12 2290 9 6703
8450 -1.56553 0.606107 7.35824 96 67 38 1.73818 2 1650 12 2281 9 6790
8449 -1.61549 0.216498 7.65568 109 79 51 1.35464 2 1637 12 2267 9 6870
8448 -1.39202 1.61042 6.52781 88 57 26 1.68296 2 1824 12 2183 9 6549
8447 -1.3905 1.61028 6.52855 88 57 26 1.97914 13 3471 12 2182 9 6550
8446 -1.31455 1.68109 6.47043 130 95 60 1.73873 5 2334 13 3470 12 2181
8445 -1.31408 1.09952 6.97947 105 78 51 0.916974 2 1663 12 2160 9 6640
8444 -1.29662 1.06797 6.9735 67 39 14 2.16178 13 2854 12 2157 9 6634
8443 -1.29662 1.06797 6.9735 67 39 14 2.16178 13 2853 12 2156 9 6635
8442 -1.47316 0.54439 7.39737 64 38 15 0.713282 13 2828 9 6785
8441 -1.40567 0.603321 7.35359 67 40 14 0.987299 13 2834 9 9358
8440 -1.40567 0.603321 7.35359 67 40 14 0.987299 13 2833 9 9357
8439 -1.40467 0.513835 7.42053 67 41 16 1.02872 13 2581 9 6783
8438 -1.47954 0.300993 7.57495 97 67 41 2.54102 13 2571 12 2131 9 9394
8437 -1.36432 0.284501 7.62084 65 40 18 1.53109 2 1444 12 2130 9 6774
8436 -1.51846 -0.00679694 7.83 74 48 21 1.9209 2 1443 12 2128 9 6868
8435 -1.53726 -0.501621 8.21453 58 39 22 0.475211 2 1236 12 2116 9 2661
8434 -1.05674 3.43024 5.01228 160 123 86 1.22418 2 5414 12 2088 9 6260
8433 -1.0082 3.15531 5.26188 140 105 77 1.51351 1 3122 12 2082 9 6247
8432 -1.15964 2.21991 6.0285 155 119 85 0.769571 10 4153 12 2063 9 6424
8430 -1.13846 1.62681 6.51826 94 60 32 1.90737 2 1681 12 2052 9 6476
8429 -1.13712 0.915861 7.10439 90 64 39 1.8423 13 2602 12 2023 9 6526
8428 -1.08811 0.930542 7.13279 95 69 44 1.24078 2 1267 12 2022 9 6525
8427 -1.18765 0.853212 7.18878 94 67 40 1.48104 2 1457 12 2020 9 6630
8426 -1.12622 0.86855 7.12037 91 65 38 0.723447 2 1266 10 2526 12 2016
8425 -1.10671 0.820058 7.21738 88 60 36 0.936239 2 1259 12 2012 9 6623
8424 -1.20196 0.611177 7.38275 87 61 34 1.85453 2 1451 12 2007 9 6615
8423 -1.23481 0.584862 7.37012 56 30 5 1.28515 13 2584 9 6696
8422 -1.23481 0.584862 7.37012 56 30 5 1.28515 13 2583 9 6695
8421 -1.13307 0.463555 7.49944 84 58 33 2.05082 2 1248 12 2000 9 6611
8420 -0.879936 3.751 4.76412 187 145 105 0.275079 2 5315 12 1979
8418 -0.893406 1.23795 6.87112 65 38 9 0.260693 2 1285 12 1900
8417 -1.02561 0.866915 7.15307 75 51 25 1.83569 13 2402 12 1886 9 6521
8416 -1.02561 0.866915 7.15307 75 51 25 1.83569 13 2401 12 1885 9 6520
8415 -1.09654 0.822936 7.16081 87 60 33 0.990075 2 1264 10 2521 12 1883
8414 -1.0025 0.678434 7.26873 68 43 21 0.849822 2 1255 10 2288 12 1876
8413 -1.14689 0.306638 7.54342 69 47 23 1.75601 2 1243 13 7356 12 1867
8412 -0.604797 3.77273 4.71125 184 144 108 1.10498 2 1871 12 1849 9 6094
8411 -0.734655 3.47021 4.97233 174 139 109 1.06392 2 1858 12 1835 9 6141
8410 -0.711948 1.47977 6.65458 32 13 5 1.14887 2 1298 12 1797 9 1603
8409 -0.810182 1.2334 6.87866 76 50 27 1.40185 2 1279 12 1791 9 6399
8408 -0.723686 1.28227 6.81347 20 2 0 0.86979 2 1181 12 1789
8407 -0.435603 3.81979 4.6998 171 131 96 0.889926 2 1729 13 8243 12 1764
8406 -0.423739 3.82375 4.68409 140 104 70 1.53439 11 5171 12 1761 9 1159
8405 -0.506031 3.35958 5.08376 137 101 71 1.09628 2 1711 12 1752 9 1236
8404 -0.508958 3.35665 5.08234 137 101 71 1.33557 2 1712 14 3030 15 2553 12 1751 9 1237
8403 -0.42818 2.8486 5.50579 154 122 99 1.95865 6 4817 12 1733 9 6115
8402 -0.660457 1.29194 6.79139 8 0 0 0.730811 2 1183 12 1712
8401 -0.340401 3.43107 5.01131 120 92 70 1.19251 2 1534 12 1676 9 6079
8400 -0.257195 3.42752 5.0213 115 87 66 1.143 2 1347 12 1673 9 6030
8399 -0.342678 3.17389 5.23906 135 102 77 0.509089 2 4805 13 3242 12 1668
8398 -0.365053 2.48417 5.79412 154 127 108 1.276 13 2659 12 1649 9 6184
8397 -0.141818 3.3992 5.03045 122 94 72 1.18045 2 1342 12 1606 9 6020
8396 0.286482 3.69789 4.7813 117 85 60 0.914147 2 1132 10 3921 12 1545 9 948
8395 0.181531 3.13303 5.26923 172 138 113 0.735277 13 2455 12 1537 9 1030
8394 0.238947 2.95563 5.42186 133 101 86 0.452733 2 1040 12 1530 9 1013
8393 0.0495098 2.44275 5.82151 114 92 81 1.38511 2 1028 13 2216 12 1522 9 6062
8392 0.395428 3.66511 4.79584 123 88 66 0.981357 2 1131 12 1488 9 5831
8391 0.395428 3.66511 4.79584 123 88 66 0.981357 2 1130 12 1487 9 5832
8390 0.462386 3.65235 4.81778 168 130 102 1.04211 13 2476 12 1485 9 848
8389 0.466534 3.08164 5.32199 140 109 91 1.18864 2 1041 12 1475 9 933
8388 0.901478 3.59204 4.86355 122 93 76 0.456914 2 4395 12 1348 8 5847
8387 0.890443 3.50832 4.94832 126 95 75 0.356512 13 7211 12 1345
8386 1.19516 3.70261 4.76033 161 126 104 1.54387 2 817 12 1244 8 5893
8384 1.37005 3.54716 4.88651 161 130 110 1.16097 2 680 12 1127 9 503
8383 1.2771 3.43427 5.00037 122 99 85 0.830281 13 1760 12 1124 9 5668
8382 1.2771 3.43427 5.00037 122 99 85 0.830281 13 1759 12 1123 9 5667
8381 1.56987 3.55112 4.88988 165 136 118 1.74612 10 2151 13 1591 12 991
8380 1.72757 3.51514 4.9175 142 114 100 1.02503 10 7038 12 979 9 5491
8379 10.6135 13.2751 7.35839 136 139 130 0.993134 2 625 9 5503
8378 10.8348 13.3481 7.36895 146 143 128 0.885995 2 623 9 5502
8377 9.97339 11.0414 8.00663 160 162 151 0.939437 2 443 12 852
8376 11.845 13.146 7.47394 135 133 121 0.526103 2 370 9 147
8375 11.9988 13.0092 7.55365 103 101 89 0.354156 2 365 9 144
8374 2.48575 3.45637 4.96473 138 116 105 1.3406 2 285 13 1046 12 660 9 132
8373 13.7094 13.0484 7.69105 188 186 173 0.875361 2 220 9 18
8372 -2.91035 0.40886 7.49273 43 26 11 1.79704 5 5721 13 10827 10 10085 2 8553 9 11775
8371 0.0629039 2.45519 5.83316 56 38 20 1.485 3 5836 6 1370 4 1276 5 5768 13 2217 2 1029 12 1523 9 6061 8 429 7 980
8370 1.51173 3.00769 5.35114 45 32 18 1.38072 3 10858 11 8474 10 10852 13 9746 2 6572 9 8702 8 7751 7 11248
8369 -0.331995 3.4348 5.01491 84 57 35 1.58511 1 3287 11 4860 6 5332 15 5492 5 6830 2 1535
8368 1.98477 2.77729 5.53743 120 94 71 1.68352 5 5170 10 6543 13 6486 2 314 3 8564 1 4830 11 6659 6 4674 4 7606 14 4443 7 9779
8367 -1.38185 1.23952 6.81576 120 87 56 0.697076 15 676 5 1881 2 5006 10 7632 13 7741
8366 -0.84397 2.91074 5.46642 83 57 36 1.4939 11 7574 14 4124 13 11711 5 8120 10 10106 2 7153 8 5494 7 9377
8365 -0.278541 3.83777 4.66997 119 85 49 1.01816 11 7936 4 9123 14 5250 10 11210 13 10461 2 6990 12 5132 9 8935
8364 -0.387222 3.83929 4.67377 51 36 21 2.24292 11 8519 4 9067 10 11278 13 11726 2 7059 12 7163 9 10542
8363 -2.63488 2.06254 6.16146 60 41 23 1.36084 3 9746 6 6483 15 8080 13 12438 2 9038
8362 0.949822 3.33738 5.07967 93 67 47 0.954559 3 6833 6 5096 5 6083 2 4379 14 4511 13 7100 12 1339 9 5728
8361 -0.130701 2.69888 5.63387 50 31 16 1.2099 3 5942 11 4418 6 4745 4 1498 14 2806 5 6068 1 4627 10 7654 13 7517 2 4691
8360 0.283768 2.93918 5.42731 106 75 50 0.981564 1 3239 6 1773 2 1038 10 3079 13 2233 12 1472 9 5945
8359 -2.29282 1.68045 6.46731 126 89 52 0.928485 3 5259 6 940 15 4445 5 7998 2 7541
8358 -0.526879 2.91969 5.4507 69 48 28 1.27002 3 10832 11 7579 4 8766 5 8716 10 11121 13 10302 2 6974 12 8319 9 10587 7 6307
8357 0.380241 3.7653 4.7223 99 63 28 1.52994 3 7433 11 5296 6 3464 4 3413 14 3409 1 3601 2 1133 15 5667 13 2704 5 3892 12 1490 9 5833
8356 -1.22269 1.84845 6.33337 108 74 43 1.34186 3 5409 11 4063 4 773 14 414 2 7138 5 7773 10 9903 13 10356 12 7295
8355 -1.40682 1.34204 6.73461 78 47 21 1.3383 3 845 4 436 10 7639 2 7127 5 7596 13 10284 12 7339
8354 -1.72504 -0.322671 8.08048 76 54 32 1.51645 13 12796 2 9391 12 9421 9 12619
8353 -2.04137 0.0926191 7.74065 77 51 28 1.08561 13 12757 2 9344 12 9395 9 12596
8352 -2.44531 2.68771 5.64931 126 100 75 1.61038 4 9871 2 9308 7 12038
8351 -0.320993 3.46591 4.98495 145 113 85 1.27107 2 9144 12 9195 9 12104
8350 -1.13001 -0.979288 6.63435 150 149 147 2.17616 13 12498 2 9116 12 9183
8348 -3.19273 1.18109 6.85554 109 79 51 1.36591 5 6527 2 7727
8347 -1.39685 3.62847 4.87596 177 139 100 3.02063 3 10382 2 7435
8346 -1.40042 1.58742 6.53537 130 96 66 1.87742 6 4249 9 10732 2 7133
8345 0.588065 2.48355 5.81051 157 129 117 2.51285 15 6512 2 6674 8 6839
8343 -0.513961 3.83996 4.67327 45 30 15 1.08819 13 8245 2 1731 4 8029 14 4554
8342 -0.615019 3.60293 4.87843 78 53 27 1.79064 13 10565 2 5181 3 10399 11 7828 6 7312 14 4408 15 7559 10 10304 12 5229 7 6357
8341 -1.97063 1.73616 6.42626 79 54 30 0.994493 11 6102 6 6329 2 8466 10 11194 13 11866
8340 -0.396079 3.31454 5.11724 91 63 35 1.13655 5 8129 13 7956 1 3232 3 8886 11 6642 4 7723 14 3032 12 5157
8339 -3.11342 0.964086 7.04935 46 31 15 1.32361 2 7679 5 6249 13 9080 12 7829
8338 -0.72993 2.74569 5.60061 51 36 21 1.17007 10 10042 13 11673 14 2733 6 7806 11 6298 4 7379 15 8088 2 7039 12 8346 9 10627
8337 -0.6197 3.68012 4.81274 52 36 17 0.918585 11 7830 14 4479 3 9270 15 8496 2 5186
8336 -0.615019 3.60293 4.87843 78 53 27 1.79064 13 10566 2 5182 3 10400 11 7829 6 7313 14 4409 15 7560 10 10305 12 5230 7 6358
8335 -0.650543 2.70277 5.63491 72 52 34 1.02728 5 6445 10 7933 3 8433 6 4806 4 5215 14 2734 2 4919
8334 -2.14813 2.14127 6.09509 72 52 33 1.87733 13 12402 2 9002 6 6486 4 7176 15 8043
8333 -2.7502 1.72964 6.43078 85 60 35 1.79362 5 8114 6 4384 3 5247 13 12083 2 8632 12 8617
8332 -0.452209 3.6505 4.84414 27 15 2 2.24361 15 8803 2 8285 3 10996 4 9027 12 8324
8331 -0.0776643 3.86897 4.63764 84 60 36 1.38069 10 11165 13 11685 11 8765 4 9672 14 5620 2 8209 9 10523
8330 -0.000598616 2.68924 5.6394 69 52 39 0.933087 4 8706 10 11650 15 8018 5 9071 2 8135
8329 0.535994 2.80547 5.53021 106 87 81 2.09244 10 9628 13 9949 2 4442 5 8550 15 6649 9 10474 12 8207 7 9504
8328 -1.04492 2.47601 5.82062 85 59 33 2.05619 1 6220 11 8346 4 9510 14 5546 2 9159 13 12562 15 8692 12 9217 8 6806 7 11029
8327 0.0372175 3.75966 4.7261 76 55 34 1.46054 13 10317 2 6855 4 9072 14 5252 15 8396
8326 -1.74374 2.69327 5.65017 99 70 45 1.71932 1 2965 6 4801 4 5063 14 2695 15 7163 5 8862 10 10497 13 10915 2 7422 12 5743
8325 0.269224 2.85486 5.49681 54 33 13 1.37717 10 9720 13 10012 3 10012 1 5650 11 7631 6 7816 4 8788 14 4188 15 6775 5 8619 2 6775 9 10505 12 8244 8 6851
8324 0.505862 2.53498 5.76493 44 34 22 2.10031 10 9531 13 9940 2 6731 11 6313 4 7399 8 5540 7 9508
8323 1.35705 2.66328 5.63351 51 40 33 2.35619 13 9739 2 6568 15 6471 5 7407 10 9378 12 6935
8322 -1.42579 2.7804 5.57267 53 39 27 1.60945 10 8594 2 5506 15 2102 5 6808 11 1051
8321 -0.941931 3.61374 4.87074 55 36 19 2.14664 13 8531 2 5314 11 6678 6 7402 10 10503 12 5383 9 9065
8320 -1.32842 1.36274 6.71482 53 32 14 0.959162 4 564 5 1885 10 3305 13 3164 2 5011
8319 -0.16073 3.67426 4.80734 61 42 23 1.23391 13 7974 2 4820 1 3421 11 6836 12 1681 9 5970 7 6429
8318 0.532119 3.12264 5.26744 60 45 29 1.48358 13 10019 2 4454 6 6806 4 7652 7 9539
8317 0.816142 3.00782 5.36087 38 26 18 0.96431 10 7291 13 7081 2 4363 3 8737 14 3049
8315 -0.319876 3.91986 4.60182 108 82 58 1.1915 4 6299 14 3380 11 2463 10 5078 13 3895 2 1733
8314 0.0461381 3.87431 4.63526 36 24 13 1.53765 10 8211 13 7812 2 1357 4 6320 14 3402 9 968
8313 -0.0392582 3.75889 4.73812 37 23 14 1.98223 15 3054 2 1353 3 7421 5 4431
8312 0.593031 2.91011 5.44292 87 62 35 1.67863 10 2569 13 2075 3 6225 11 4663 4 5487 14 1061 15 1437 5 2358 2 969 9 918 7 1332
8310 -3.18279 0.0987182 7.75329 74 48 23 0.598823 13 12776 2 9353
8308 -1.3686 1.99914 6.20529 110 76 49 1.54873 13 12683 2 9293 12 9347
8307 -0.983587 1.97914 6.23026 125 89 53 1.08124 13 12673 2 9289 12 9338
8306 -1.19441 1.72214 6.43575 96 65 37 0.635412 10 11986 2 9288 12 9342
8305 -0.643279 2.63129 5.6679 148 116 91 1.3135 13 12675 2 9283 12 9336
8304 -1.31587 0.071967 7.73152 75 50 28 1.03298 13 12522 2 9276 12 9339
8303 -0.254825 2.6401 5.67342 123 100 86 1.4318 10 11980 13 12668 2 9275 9 12472 12 9334
8302 -0.549388 1.94757 6.1555 15 7 3 2.22154 13 12534 2 9274 12 9381
8301 -1.10742 -0.00429455 7.66525 33 19 10 0.857223 13 12517 2 9273 12 9383
8300 0.223959 3.50504 4.94993 123 94 76 1.43407 13 12753 2 9272 12 9332 9 12557
8299 -1.95943 2.65163 5.6581 144 112 81 0.702283 13 12597 2 9197
8297 -1.57563 2.1902 6.05408 94 68 47 1.56645 13 12572 2 9171 12 9232
8294 -1.60269 0.866707 7.10256 106 75 44 0.894045 13 12542 2 9155 12 9221
8292 -0.928986 1.44912 6.67171 102 71 42 1.50508 13 12532 2 9143 12 9205
8291 -1.01923 1.24474 6.85089 105 76 46 1.62646 13 12531 2 9142 12 9203 9 12492
8290 -0.0049802 3.71231 4.77223 169 129 94 1.60296 13 12676 2 9141 12 9193 9 12466
8289 -0.130533 2.74437 5.5928 140 109 88 1.34595 10 11981 13 12669 2 9130 12 9191 9 12470 7 12462
8288 -1.41936 -0.795535 8.42937 55 42 33 1.49513 13 12220 2 9127 12 9213
8287 0.166038 2.69927 5.61658 143 115 94 1.13395 13 12520 2 9123 12 9186 9 12103
8285 -3.06954 1.7814 6.37722 122 89 58 0.958304 15 6871 2 9056
8283 -3.53087 -0.197348 7.99238 81 57 33 1.82636 13 12406 2 9032 12 9269
8282 -2.54373 1.98957 6.22819 127 92 61 0.101056 2 9025 12 9048
8281 -2.83121 1.34753 6.74546 113 80 49 1.43499 13 12034 2 9024 12 8610
8279 -2.53052 1.2074 6.85316 82 56 31 0.639931 15 6441 2 9000
8278 -2.13743 1.01047 7.00839 82 58 34 1.9059 13 11747 2 8972 12 9013 9 12218
8277 -1.938 0.810509 7.17402 72 46 23 1.71085 15 6349 2 8958 9 12213
8276 -1.48612 1.32168 6.76498 110 77 46 1.97214 13 12317 2 8938 12 8983
8274 -1.28817 1.49348 6.61894 79 53 28 1.46812 3 9700 13 11627 2 8923 12 8972
8273 -1.29013 1.49209 6.61552 79 53 28 1.81567 3 9699 13 11626 2 8922 12 8971 4 7119
8272 -0.898065 1.75092 6.40968 116 82 47 2.12299 13 12290 15 7913 2 8902 12 8943 9 12168
8271 -0.126402 3.67787 4.82051 177 134 100 1.50223 10 11919 2 8896
8270 -1.29588 -0.188255 7.9543 49 36 27 2.0197 13 11464 2 8887 12 8955 9 12200
8269 -1.22553 -0.0904613 7.86013 81 58 42 1.8433 13 12232 2 8874 12 9214
8268 0.193364 3.46114 4.9965 155 120 98 1.63298 13 12279 2 8870 12 8899
8267 0.610961 2.76434 5.5639 137 115 104 1.47685 13 12224 2 8842 9 12055
8266 -3.13463 1.75743 6.4028 123 89 61 1.70804 6 4374 2 8687 12 8679 4 4682
8265 -3.10993 1.71327 6.48342 0 0 0 1.38247 14 262 15 4761
8264 -3.18579 1.36244 6.72762 96 68 46 1.4426 6 821 2 8679 12 8678
8263 -3.18767 1.35886 6.72115 96 68 46 1.97825 15 4436 2 8678 12 8677
8262 -3.51244 0.443992 7.46342 103 73 44 1.67534 13 12074 2 8672 12 8699 9 11881
8261 -3.51244 0.443992 7.46342 103 73 44 1.67534 13 12073 2 8671 12 8698 9 11882
8258 -3.05027 1.07571 6.94453 119 85 58 1.26473 5 8677 15 6497 2 8621
8257 -3.36239 0.0408026 7.77735 79 53 26 1.90817 6 264 2 8619 12 8670
8256 -2.38659 2.29566 5.96247 137 100 71 1.24925 13 12050 2 8589 12 8570
8255 -2.78943 1.16401 6.88731 79 53 35 2.18468 10 10388 2 8583 12 8606 9 11724
8254 -2.89212 1.13513 6.9253 79 56 34 1.78433 10 11324 2 8582 12 9054
8253 -2.93497 0.842729 7.14025 106 75 46 1.39515 13 10895 2 8580 12 8605 9 11749
8252 -2.93497 0.842729 7.14025 106 75 46 1.39515 13 10896 2 8579 12 8604 9 11748
8251 -3.08971 0.645682 7.3015 115 84 55 1.92307 13 10964 12 8638 9 11808 2 8578
8250 -3.33783 -0.254139 8.02612 90 60 34 1.57033 13 11905 2 8575 12 8652 9 11877
8249 -2.96277 0.391517 7.51944 113 77 45 1.94184 13 11906 2 8554 12 9052 9 12251
8247 -2.01445 2.89618 5.48495 144 114 80 2.03244 13 12422 2 8531
8246 -2.01445 2.89618 5.48495 144 114 80 2.03244 13 12421 2 8530
8245 -3.03515 -0.439294 8.17789 88 59 31 0.933408 13 10632 2 8512 12 8598 9 11844
8244 -2.46346 0.993343 7.01858 114 80 52 0.4114 13 11863 2 8488 12 8549
8243 -2.92887 -0.479052 8.20681 118 91 62 0.901128 13 10516 12 8578 9 11824
8240 -2.41477 0.154765 7.70197 120 85 53 1.54843 13 10414 2 8426 12 8543 9 11713
8239 -1.77752 1.45106 6.65177 114 79 47 1.73102 6 4193 13 10535 2 8393 12 8457 9 11621
8237 -1.08084 2.82109 5.54376 149 114 82 1.68714 4 7375 2 8370 12 7306 9 10637
8236 -1.31849 2.27725 5.98326 97 74 54 1.43181 10 11151 2 8367 12 8406
8235 -1.56942 1.58856 6.54519 114 81 48 0.489569 13 11705 2 8364 12 8427 15 6501
8234 -1.53297 1.43324 6.66539 126 90 56 1.56566 10 11028 2 8356 12 8423
8233 -1.70755 1.31238 6.7665 109 76 45 1.29719 13 11699 2 8354 12 8453
8232 -1.7798 1.12988 6.9394 0 0 0 0.845687 3 5104 15 4045
8231 -2.02306 0.247626 7.62371 122 86 54 0.951703 10 7498 13 10341 2 8346 12 7471 9 10902
8230 -1.97482 0.0962196 7.7433 76 48 24 1.29746 13 10278 2 8345 12 8475 9 11658
8229 -1.99258 0.031235 7.8122 114 80 52 2.14061 10 9705 2 8343 9 11675
8228 -1.80669 0.440084 7.47527 107 75 52 1.29988 10 9772 2 8305 12 8447 9 11641
8227 -1.97725 -0.140516 7.94076 113 80 47 1.46424 13 10197 2 8301 9 11674
8226 -2.49722 -1.1069 7.94775 167 148 115 2.31658 13 11559 2 8297 12 8496 9 11728
8225 -0.333392 3.99586 4.55625 160 124 92 0.613255 13 12346 2 8287 12 8326
8222 -0.94896 1.77328 6.41015 115 81 46 1.38839 13 11576 2 8234 12 8367
8221 -0.94896 1.77328 6.41015 115 81 46 1.38839 13 11575 2 8233 12 8366
8220 -1.69889 -0.67402 8.35599 83 62 43 0.791684 13 10057 2 8223 12 8415
8218 -0.332174 2.86706 5.50174 144 113 92 1.6768 13 11587 2 8197 12 8302 9 11475
8217 -0.59029 2.44921 5.81354 108 85 69 2.485 13 10236 2 8194 12 7151
8216 -0.774157 1.426 6.70088 89 62 34 1.46695 13 11530 2 8188 12 8337 9 11557
8215 -1.16938 0.701529 7.24227 71 46 24 2.10506 13 11525 2 8185 12 8377
8213 0.392484 3.29147 5.15495 123 97 81 1.95147 13 11505 2 8122 12 8232
8211 0.141113 2.67484 5.66115 109 87 73 0.373418 5 9059 2 8113
8210 0.101163 2.41204 5.85468 141 117 101 2.51821 10 10909 13 11472 2 8112 12 8238
8209 0.164218 2.31305 5.95716 156 129 108 1.16425 10 10908 13 11469 2 8110
8208 0.560505 3.25126 5.15682 123 97 84 0.704757 5 8656 2 8100 9 10476 8 6902 7 9538
8207 0.553983 2.83578 5.5066 144 118 104 0.812287 5 9063 2 8096
8206 0.487133 2.58883 5.73066 141 114 103 2.20042 13 11442 15 7952 2 8089
8205 0.803812 2.25402 5.97116 141 121 110 0.725441 13 11401 2 8049
8204 -3.14184 1.67439 6.46376 111 77 50 2.12512 15 4759 2 7768 12 7879 5 8226
8203 -3.29322 1.06971 6.95127 119 88 60 1.46909 5 6388 2 7762 12 7874
8202 -3.55105 0.564782 7.39079 58 40 21 1.97202 13 11107 2 7756 12 6609
8201 -2.7446 2.14624 6.10088 125 90 61 2.26273 3 5592 4 733 2 7734
8200 -3.28818 0.856449 7.12578 93 63 37 1.26871 10 8694 2 7726 12 7868 9 11183
8199 -3.37043 0.584467 7.35182 107 76 45 2.52512 13 11042 2 7720 12 7865 9 11226
8198 -3.37834 0.565624 7.36747 82 56 29 1.26909 13 9053 2 7718 11 119
8197 -3.34581 0.581347 7.34991 112 81 50 1.64104 13 9052 2 7717 12 7864 9 11225
8195 -3.05939 0.682052 7.26408 77 49 27 1.5737 5 6017 2 7632 12 7778 9 11099
8194 -3.34664 -0.193667 7.98601 100 67 34 1.18303 13 8593 2 7626 12 7858
8193 -3.40731 -0.334391 8.08251 116 84 50 0.974111 13 10823 2 7625 9 11939
8192 -2.25914 2.0055 6.20719 80 52 30 0.619264 13 10909 2 7545 12 7626 4 750 6 4473
8191 -2.49282 1.18081 6.86584 116 85 57 0.784406 13 10839 2 7537 12 7669
8190 -2.02405 2.18278 6.05759 106 78 56 0.464834 13 10911 2 7484 12 7533
8189 -2.37281 1.23402 6.82093 78 51 28 0.947721 13 10749 2 7468 12 7613 9 9651
8188 -2.51903 0.976744 7.06152 109 78 49 2.28904 3 625 2 7461 12 7662
8187 -2.49935 0.935798 7.08164 109 75 47 1.39808 13 8454 2 7460 12 7661 9 10979
8185 -2.22002 0.925886 7.13059 0 0 0 1.63776 10 7888 13 10642
8184 -2.23006 0.91958 7.09399 78 50 26 0.680474 13 10641 2 7403
8183 -2.66291 -0.0153107 7.84197 76 50 23 0.65469 13 10518 2 7398 9 11060
8182 -2.58011 -0.0332189 7.85762 72 46 21 1.20156 13 10517 2 7397 12 8559 9 11745
8181 -2.33881 0.354828 7.54973 73 48 28 1.34675 10 7737 2 7337 12 7561 9 10973
8180 -1.84475 1.46417 6.6419 113 80 47 1.24544 10 10027 13 10536 2 7298 12 7478
8179 -1.80561 1.22887 6.83714 90 59 31 1.16552 13 8047 2 7297 12 7434
8178 -1.80561 1.22887 6.83714 90 59 31 1.16552 13 8048 2 7296 12 7433
8177 -2.3379 -0.166578 7.95794 72 44 22 0.522402 2 7285 9 11000
8176 -2.36448 -0.469927 8.21599 83 55 31 0.855686 13 10270 2 7283 12 8518
8175 -1.38205 1.90543 6.28187 97 66 37 0.386204 13 10435 2 7234 12 7348
8174 -1.81746 0.789539 7.14529 72 45 18 1.51955 13 7874 2 7214
8171 -0.685615 3.68443 4.80452 147 113 85 1.16642 13 10675 2 7162 15 8497 12 7209 9 8995
8170 -0.655965 3.61752 4.8663 163 130 99 1.99836 10 11274 2 7159
8169 -0.834678 3.27321 5.16463 170 131 92 1.25534 13 10559 2 7157 12 7249
8168 -1.29047 1.89511 6.30176 83 53 25 1.10136 13 10357 2 7140 12 7345
8167 -1.29772 1.6462 6.50331 126 90 57 1.95274 5 7681 2 7132 9 10731
8166 -1.5365 0.944209 7.07514 70 47 23 1.67284 13 10282 2 7125 9 10785
8162 -0.462594 3.95515 4.58836 176 134 96 1.56244 13 10574 2 7060 12 7166
8159 -0.487902 3.51901 4.9413 129 99 75 1.56126 10 11207 15 8331 2 7057
8157 -1.27292 1.02073 7.02448 103 73 47 2.01995 13 7622 2 7018 12 5336 9 10752
8156 -1.5069 0.616876 7.35595 66 43 23 0.754616 2 7015 9 10815
8155 -1.41903 0.579013 7.34779 89 62 35 1.71524 10 9606 2 7013 12 8394
8154 -1.59778 0.498813 7.43089 89 62 35 2.31607 13 10207 2 7012 9 10848
8153 -0.393683 3.44981 5.00143 119 91 67 2.44554 15 8264 2 6983 9 10562
8152 -0.636373 2.87497 5.48872 124 96 74 0.955374 13 10378 2 6973 12 7190
8151 -0.827773 2.26767 5.99398 140 108 85 2.0608 3 8222 2 6964 12 7234
8150 -1.25091 0.989422 7.00111 98 71 42 0.489683 10 7391 13 10213 2 6948
8149 -1.63048 -0.403057 8.17114 99 69 45 2.05211 10 6980 2 6936 12 7379
8148 0.0276818 3.78483 4.70952 150 113 86 1.49583 11 8521 2 6918 12 7113
8147 -0.106908 3.54866 4.91239 142 110 87 1.30295 10 10057 2 6913 7 6432
8146 -0.520752 2.23044 6.00354 117 91 74 1.70135 13 10140 2 6905 9 10617
8145 -0.596352 1.91784 6.24348 33 15 5 1.79811 13 11534 2 6901 12 8312 9 10633
8144 -0.866749 1.12241 6.91829 58 33 11 0.780552 13 10070 2 6889 12 7174
8143 -1.34922 -0.0229583 7.83638 64 40 21 1.43529 13 7351 2 6877 9 10806
8142 -1.34922 -0.0229583 7.83638 64 40 21 1.43529 13 7352 2 6876 9 10805
8139 0.116578 2.73964 5.57043 99 81 69 0.972569 13 10077 2 6801 12 7087
8138 0.123408 2.74646 5.57662 99 81 69 1.06908 10 9800 13 10076 2 6800 12 7086
8136 0.715814 3.41842 5.00985 114 88 73 1.92117 5 8664 15 8146 2 6742 12 7034
8135 0.394257 2.55719 5.74915 141 119 107 1.94511 2 6732 12 4926 7 9506
8133 0.365907 2.3869 5.8903 141 117 100 1.21791 10 9528 13 9936 2 6726
8132 0.823995 2.98865 5.38077 162 135 118 0.591357 13 9875 2 6686 9 8823
8130 1.07653 3.46618 4.96504 139 108 89 0.372566 15 8098 2 6637 12 6959
8129 1.11783 3.25895 5.16109 112 93 86 0.902438 13 7092 2 6631 9 5719
8128 0.909012 2.31594 5.92861 102 88 87 0.980929 10 9401 13 9781 2 6619
8124 -3.01491 2.0321 6.18131 130 97 69 1.72155 15 1910 2 6232 12 6417
8123 -3.17185 1.44115 6.65291 117 86 58 1.70004 5 3790 2 6215 12 6470
8122 -3.32351 0.860055 7.12289 84 57 30 2.19034 5 2997 13 9220 2 6206 12 6461 9 10098
8121 -3.46017 0.577144 7.37212 57 39 15 1.64407 13 9210 2 6202 12 6528
8120 -3.53441 0.496033 7.44347 90 68 46 1.15321 13 9213 2 6199 12 6607
8119 -3.67356 0.136934 7.75274 84 52 27 1.68332 13 9201 2 6196 12 3940
8118 -3.15614 1.22525 6.84542 89 61 39 1.25076 10 5663 2 6122 12 6392
8117 -3.16944 1.18763 6.87484 116 89 62 1.70098 13 9234 2 6120 12 6390
8116 -3.22278 0.747203 7.23591 86 59 38 0.664898 13 9068 2 6115
8115 -2.7387 1.76415 6.40179 122 87 57 0.593298 10 8863 2 6045 12 6220
8114 -2.82329 1.47492 6.66049 78 53 33 2.69468 13 9101 2 6039
8113 -3.19821 0.739446 7.22748 84 57 32 1.47654 13 9067 2 6022 12 7827 9 10028
8112 -3.21989 0.55519 7.39033 78 51 24 1.02041 13 8870 2 6015 12 7822
8111 -3.21989 0.55519 7.39033 78 51 24 1.02041 13 8869 2 6014 12 7823
8110 -3.18605 0.592612 7.33085 119 88 59 1.10701 5 2488 2 6013 9 10024
8109 -2.78604 1.29743 6.78812 109 78 50 1.16807 13 8898 2 5939 12 6200
8108 -2.85153 1.09495 6.95971 103 77 54 1.91042 10 8562 2 5929 12 7747
8107 -2.84586 1.07702 6.97108 86 60 43 1.54193 13 8886 2 5928 12 6192
8106 -2.80987 1.06793 6.95976 82 55 34 1.19501 5 2766 2 5927 12 6191 9 9854
8105 -2.92096 1.02392 6.99546 111 81 53 1.72916 13 5300 2 5925 12 6279 9 9900
8104 -2.95864 1.01222 7.00418 83 58 38 0.67761 5 3007 2 5924 12 6278
8103 -2.84885 0.999505 7.01778 84 56 34 1.31421 13 8882 2 5920 12 6182 9 9849
8102 -2.92249 0.928582 7.07822 115 84 56 1.51785 13 5290 2 5919 12 6186 9 9898
8101 -3.0685 0.72385 7.23995 87 57 33 2.07962 13 8877 2 5916 12 7782 9 9957
8100 -2.67394 1.20435 6.85832 121 88 60 1.70287 5 3021 10 4973 2 5861
8099 -2.74195 1.07376 6.9552 114 83 54 1.04788 5 2767 13 5030 2 5859
8098 -2.80069 1.05201 6.97293 112 82 56 1.26092 13 5028 2 5856 12 6189 15 860 9 9852
8097 -2.76265 0.907054 7.09602 120 89 61 1.2651 13 5021 2 5855 12 6114
8096 -2.75623 0.844104 7.14505 67 41 18 1.24693 10 4686 2 5853 12 6113
8095 -3.12322 0.0167024 7.8362 109 77 46 1.19357 10 4071 13 4696 2 5845
8094 -2.52757 1.12758 6.90795 71 43 22 0.682001 13 8625 2 5771 9 10986
8093 -2.55543 1.05333 6.98794 122 89 58 1.40528 10 8278 2 5769 12 7666
8092 -2.53847 1.02819 6.99173 84 57 35 0.643317 2 5767 12 6032 9 9710
8091 -2.58586 0.963613 7.04967 83 53 27 0.705953 13 8613 2 5763 12 6030 9 10982 5 6029
8090 -2.6096 0.915426 7.08473 105 75 47 2.06089 13 4728 2 5762 9 9787
8089 -2.72304 0.841266 7.14925 68 46 25 1.46371 10 4681 13 4720 2 5761 9 9840
8088 -2.72241 0.844257 7.16117 68 46 25 1.43287 10 4682 13 4721 2 5760
8087 -2.60136 0.808044 7.17556 109 79 51 1.2283 5 2274 13 4439 2 5758 12 6018 9 9780
8086 -2.60123 0.80827 7.17679 109 79 51 1.4607 5 2273 13 4438 2 5757 12 6019
8085 -2.78631 0.503863 7.43315 77 50 28 0.0911154 13 8437 2 5754
8084 -2.80125 0.215341 7.6616 133 95 59 1.4619 13 4420 2 5750 12 6097 9 9953
8083 -3.0097 -0.0531823 7.87823 76 50 23 0.56533 13 4414 2 5748 12 6170
8082 -2.24352 1.609 6.52422 72 44 23 1.35956 3 896 2 5692 12 5880
8081 -2.31575 1.45838 6.64012 112 85 58 0.321689 13 4764 2 5691 12 5954
8080 -2.31575 1.45838 6.64012 112 85 58 0.321689 13 4763 2 5690 12 5953
8079 -2.46113 1.15775 6.88521 87 57 33 0.47551 13 8627 2 5684 12 5951 9 9653
8078 -2.39572 1.09503 6.94052 112 81 53 0.595196 2 5681 12 5948 9 9647
8077 -2.39373 1.02114 6.99531 120 89 58 1.23068 13 4459 2 5678 12 5944 9 9648
8076 -2.49951 0.81395 7.17663 80 52 31 0.990343 10 4092 13 4444 2 5676 12 3023
8075 -2.5937 0.708141 7.24683 122 91 61 1.44411 13 8444 2 5671 12 7657 2 7457 9 9778
8074 -2.50375 0.647418 7.30044 73 47 22 1.2818 13 4200 2 5670 12 5936 9 9774
8073 -2.92276 -0.341987 8.1033 75 48 22 1.94399 13 8296 2 5655 9 11175
8072 -1.34039 3.70525 4.805 185 147 110 1.6425 13 8977 2 5617 12 5588
8071 -1.86526 2.32357 5.95769 102 75 51 0.735621 13 8649 2 5591 12 5741
8070 -2.29707 0.926828 7.08333 76 48 24 1.70156 10 8018 2 5573 9 9643
8069 -2.47031 0.361426 7.53466 80 50 26 0.940936 13 8159 2 5563 12 5924 9 9767
8068 -1.46759 2.99112 5.38669 116 88 64 2.11658 13 8662 2 5513 12 5559 9 9163 7 670
8066 -1.76215 2.15452 6.07862 147 109 73 1.01612 10 5005 2 5488 12 2610
8065 -2.10851 1.16989 6.90205 0 0 0 1.7616 13 8320 15 768
8064 -2.11327 0.904701 7.10344 87 60 33 1.09238 10 3827 2 5470 12 5793 9 9570
8063 -2.21169 0.732202 7.24 104 73 42 0.825331 5 1844 2 5469 9 9634
8062 -1.5253 2.17699 6.07315 89 61 40 1.69139 15 1408 2 5393 12 5550
8061 -1.60774 1.93934 6.26466 121 86 54 0.53014 15 1283 2 5383 12 2468 10 4474
8060 -1.92655 0.946018 7.06771 79 47 22 1.33195 10 3552 2 5370 12 5720 9 9514
8059 -2.04438 0.775166 7.20026 109 78 47 1.1701 13 8042 2 5364 12 5789 9 9561
8058 -1.95801 0.736353 7.23775 109 78 50 1.51048 2 5362 12 5711 9 9509 5 1678
8057 -1.95547 0.740852 7.2443 109 78 50 1.43694 2 5361 12 5712 9 9508
8056 -2.05294 0.486985 7.44344 80 54 31 1.6147 10 7605 2 5358 12 5780 9 10906
8055 -2.16607 0.336164 7.5562 76 48 24 1.27489 2 5354 12 7506 9 10944
8054 -2.10854 0.355464 7.55454 117 83 55 1.93407 10 3265 2 5351 12 5779
8053 -0.801592 4.00668 4.53555 162 120 80 1.45413 4 6285 13 8542 2 5328
8052 -0.760921 3.87868 4.64859 192 149 107 1.5223 10 10618 13 10790 2 5319 12 5304
8050 -1.27365 2.61493 5.7051 151 116 88 2.13824 13 8212 2 5287 12 5468
8049 -1.6816 1.11813 6.91577 120 85 52 1.74112 13 7887 2 5253 12 5632
8048 -1.75943 0.740245 7.25087 75 45 19 1.50937 2 5249 12 5625 9 9464
8047 -2.00927 0.221831 7.6379 63 36 14 1.35001 13 7720 2 5239 12 7470 2 7212 9 10901
8046 -2.12379 -0.167271 7.95185 107 77 48 1.20142 13 7716 2 5237 12 5776 9 10969
8042 -0.748158 3.56731 4.90807 162 129 98 1.36674 14 4403 2 5184 12 1965 9 9033
8039 -0.784011 3.10219 5.30087 155 121 94 0.858712 5 8175 11 6418 2 5170 12 5291
8038 -0.784273 3.1017 5.30047 155 121 94 1.09047 5 8176 2 5169 12 5292
8037 -1.06626 2.29443 5.97371 146 112 87 1.37565 1 373 13 7928 2 5158 12 5364 8 234
8036 -1.37838 1.56917 6.56255 86 55 26 0.398517 13 7899 2 5133
8035 -1.34365 1.54401 6.58196 121 86 54 1.5875 13 3461 2 5131 12 5435
8034 -1.50929 1.40894 6.69497 100 65 35 0.722533 13 3459 2 5128 12 5534
8033 -1.50813 1.40818 6.69568 100 65 35 1.30553 13 3458 15 788 2 5127 12 5533
8032 -1.42445 1.27521 6.80291 59 37 15 0.652104 13 3158 2 5126 12 5429
8031 -1.42254 1.27882 6.80987 59 37 15 1.15607 13 3157 2 5125 12 5428 9 9311
8030 -1.82286 0.405519 7.46964 70 45 23 1.01241 13 3100 2 5110 12 2413
8029 -1.81542 0.410399 7.48986 70 45 23 1.75321 13 3101 2 5109 12 2412 9 9501
8028 -1.94997 -0.0302571 7.83814 110 79 50 1.21028 13 7594 2 5102 9 9623
8027 -1.86388 -0.0205666 7.85055 101 71 45 1.97512 10 2483 2 5100 12 5610 9 9549
8026 -1.89401 -0.0567809 7.85077 101 67 39 2.04586 13 2804 2 5099 12 5611 9 9550
8024 -0.439715 3.62558 4.85309 151 117 89 0.651732 10 8333 2 5051 13 8102
8023 -0.773832 3.0813 5.31549 118 88 64 0.686799 1 3124 5 6816 2 5041
8022 -0.74017 2.81662 5.53174 124 94 71 1.32772 13 7945 2 5039 12 5212
8021 -0.73717 2.82012 5.53564 124 94 71 1.25626 1 3068 13 7946 2 5038 12 5211
8020 -1.20402 1.41159 6.68979 92 58 30 1.34505 5 1896 13 3169 2 5014 12 2044 9 9258
8019 -1.29942 1.41974 6.68771 123 87 53 0.968475 13 7750 2 5013 12 5434
8017 -1.35194 0.892969 7.09709 100 73 44 1.20088 5 1528 2 5001 12 5422
8016 -1.37513 0.875341 7.10008 71 43 19 1.47192 10 2756 13 7619 2 5000 12 5421
8015 -1.48533 0.695152 7.27837 100 72 48 2.31737 10 2750 13 7612 2 4997 9 9401
8014 -1.76942 0.0868417 7.72963 85 55 29 0.766694 13 7597 2 4983 12 5613
8013 -1.78872 -0.235502 7.99709 98 68 40 0.666624 13 2562 2 4981 9 9547
8012 -1.93713 -0.689492 8.38404 77 56 35 1.24986 2 4975 9 9689
8011 -0.213645 3.84705 4.65387 178 135 101 1.74256 13 7985 2 4948 12 1686 9 5979
8010 -0.299379 3.39596 5.04342 130 100 74 0.169674 1 4765 2 4934 9 8952
8008 -0.536172 3.1721 5.23766 175 136 105 0.86468 3 8802 2 4927 9 9013
8007 -0.565066 2.78478 5.56381 128 100 78 0.493393 10 9986 13 10300 2 4920 7 6264
8005 -0.97291 1.74684 6.42125 81 51 23 1.12106 5 2125 2 4899 12 1921
8004 -0.980548 1.65567 6.49888 107 77 51 0.519272 10 7524 2 4898 12 5279
8003 -0.981488 1.65584 6.4988 107 77 51 0.820372 10 7523 13 7646 2 4897 12 5278
8002 -0.976142 1.39376 6.69951 104 74 46 0.715683 5 1703 10 2779 2 4892
8001 -1.02866 1.29352 6.80681 102 70 41 1.69241 13 2615 2 4887 12 5267 9 9185
8000 -1.18232 0.967387 7.04437 72 46 23 0.833503 13 7494 2 4875 12 5332
7999 -1.29363 0.678669 7.2928 87 61 38 2.14188 13 7480 2 4865 12 5328 9 10783
7997 -1.39954 0.250703 7.57628 91 63 39 1.35507 13 2569 2 4854 12 5403
7996 -1.47028 0.123883 7.69163 67 44 24 0.515313 13 7459 2 4853 12 5402
7995 -1.50758 -0.0325752 7.83869 84 58 33 1.46912 13 2371 2 4851 9 9450
7993 -0.135917 3.2911 5.13146 137 102 80 0.955554 11 6646 2 4808 12 1598 9 8949
7992 -0.131287 3.29895 5.13535 137 102 80 1.17356 13 7676 2 4807 12 1597 9 8948
7991 -0.379969 2.81866 5.52142 111 84 65 0.465749 13 7669 2 4800 12 5112
7990 -0.360127 2.55038 5.76234 109 83 66 1.23613 5 7779 2 4794 9 9044
7989 -0.602501 2.05628 6.1559 126 88 51 1.85095 13 7509 2 4784 9 6293
7987 -0.832701 1.18016 6.89853 67 43 20 2.67643 10 7267 13 2411 2 4774 12 5184 9 1702
7986 -0.935257 0.845742 7.13774 58 35 17 1.62403 5 5228 10 2295 2 4766
7985 -1.1364 0.347983 7.53262 63 42 23 0.834637 10 2088 2 4759 12 5252
7984 -1.46098 -0.175047 7.94281 99 73 50 1.50455 13 2367 2 4757 12 2124 9 9448
7983 -0.0189503 3.56843 4.89403 125 94 73 1.93066 15 7373 2 4715
7982 -0.0601863 2.88658 5.46772 144 118 101 1.67728 13 7526 2 4696 12 1585 9 6068
7980 0.137537 3.43171 5.00604 110 87 69 0.990406 1 3353 11 7838 13 7536 15 7281 2 4613 12 5014 9 8923
7979 0.375982 3.44229 4.99786 116 87 71 0.618067 10 7668 2 4545 9 5884 11 7842
7978 0.528984 3.41175 5.01846 112 84 70 0.41341 1 4867 2 4540 12 4892 9 8835
7977 0.211743 2.59112 5.70369 97 80 72 0.771825 13 7272 2 4530 9 8941
7976 0.213068 2.50908 5.73819 148 121 104 1.17721 13 7268 2 4528 12 4995
7975 0.865044 3.61155 4.86717 138 103 81 0.674577 13 7215 2 4469 12 4845
7973 0.720931 3.2697 5.13579 123 99 87 0.934098 1 4818 2 4459 8 3890 11 6784
7972 0.562485 3.13683 5.25788 121 95 80 1.03181 13 10023 2 4456 12 7030 9 8879 8 5654
7971 0.560849 3.13806 5.2579 121 95 80 0.797852 13 10024 2 4455 8 5655
7968 0.326755 2.59049 5.74502 0 0 0 2.82933 13 7269 15 4341
7967 0.422442 2.52857 5.76722 102 83 76 2.18762 5 5619 2 4437 12 4922
7965 0.880771 3.37425 5.0456 156 127 111 1.07306 11 7884 2 4386 12 4836 9 8764
7964 0.954156 3.34305 5.08193 127 103 91 0.656052 13 7101 2 4380 12 1340
7963 0.946285 3.26203 5.15878 136 112 103 1.50206 13 9885 2 4374 12 4828
7961 0.699968 2.48898 5.7605 146 128 118 1.54951 13 7063 2 4350 10 2113 12 4865
7960 1.18789 3.45417 4.98729 138 112 99 0.706864 13 7103 2 4295 12 4762
7959 1.02523 3.21882 5.18363 111 92 86 1.03843 10 7156 2 4291 9 8754 7 9637
7958 1.01473 3.10379 5.2874 141 115 100 1.04643 13 7084 2 4279 9 5717
7955 0.839554 2.68077 5.60219 105 90 85 0.782981 13 6940 2 4260 12 1313
7954 0.794646 2.64158 5.66513 99 85 82 1.90539 10 9463 13 9864 2 4258
7953 0.781923 2.43777 5.77252 131 112 105 0.10532 2 4250 12 4797
7951 1.52447 3.62882 4.8187 133 106 89 1.00674 5 7723 2 4176 12 1006
7949 1.34769 2.90376 5.42014 128 109 103 0.751325 13 6823 2 4162 12 4680
7948 1.19404 2.73738 5.55645 117 103 102 1.31057 10 6863 13 6819 2 4156 12 4734
7947 1.19438 2.47988 5.81226 101 90 88 1.26898 1 5666 13 9783 2 4149 8 6881
7946 1.07104 2.28879 5.95453 104 92 94 1.41961 13 9778 2 4145 10 6689
7945 1.07104 2.28879 5.95453 104 92 94 1.41961 10 6688 13 9777 2 4144
7944 1.76385 3.57766 4.87015 167 140 123 1.34686 13 6850 2 4053 12 984
7943 1.54139 3.36782 5.05435 160 134 121 0.864893 13 6837 2 4048 12 4614 9 5581
7942 1.27571 2.57608 5.67288 147 129 125 0.910726 13 6673 2 4033 12 1101
7941 2.04271 3.51897 4.91576 130 106 97 1.56653 13 6590 2 3963 12 842
7938 2.36613 3.49019 4.93568 160 137 129 1.0912 13 6500 2 3922 12 4469 9 5201
7937 2.17725 3.39173 5.04606 136 117 110 0.0498531 13 6579 2 3921
7936 1.90344 2.65352 5.62188 157 143 140 0.371809 10 9305 2 3918
7935 2.2676 2.99438 5.35401 132 122 123 1.15547 13 6491 2 3865 12 751
7934 -3.32548 1.32362 6.7578 128 96 66 0.364171 2 3517 12 3833
7933 -3.50422 0.65952 7.27743 106 79 52 1.58788 13 5770 2 3377 9 10234
7932 -2.89452 1.70106 6.46222 81 54 27 2.12581 13 5814 2 3266 12 3497
7931 -2.94736 1.3301 6.74924 80 52 30 0.0143484 2 3129 12 3484
7930 -3.03429 0.876896 7.11859 82 50 25 1.79535 13 5287 2 3112 12 3466 9 7693
7929 -3.03429 0.876896 7.11859 82 50 25 1.79535 13 5286 2 3111 12 3467 9 7694
7928 -3.16092 0.795283 7.18126 77 51 26 1.0937 13 5549 2 3107 9 7808
7927 -3.16189 0.796347 7.18422 77 51 26 1.70234 13 5548 2 3106 12 3595 9 7807
7926 -3.137 0.66153 7.31637 115 84 55 0.00216266 2 3103 12 6368
7925 -3.17655 0.517555 7.4254 97 66 37 0.848512 13 5264 2 3094 12 6364
7924 -2.63153 1.68307 6.47867 122 87 59 2.38861 13 5597 2 3015 12 3211
7923 -2.78655 1.3496 6.74442 113 82 53 0.891548 13 5312 2 3005 12 3337
7922 -2.90421 1.00221 7.00651 74 46 24 1.32097 2 2995 12 6187 9 9856
7921 -3.12805 0.532165 7.39268 85 56 26 0.685851 13 5268 2 2974 9 7793
7920 -2.51729 1.63054 6.50481 120 87 56 1.23787 5 3542 2 2891 12 3060
7919 -2.59802 1.30446 6.77476 120 86 58 0.778081 13 5047 2 2877 12 3048
7918 -2.89489 0.562823 7.37868 118 87 59 1.92625 13 4710 2 2854 12 6175 9 9897
7917 -2.29529 2.03413 6.17569 127 93 66 0.186833 2 2760 12 2958
7916 -2.29655 2.01352 6.20323 74 46 24 1.80288 13 5366 2 2759 12 5964
7915 -2.43738 1.51802 6.59397 80 54 31 1.14841 5 3296 13 5057 2 2739
7914 -2.45829 1.24051 6.81938 93 63 35 0.918858 5 2782 2 2730 12 2925
7913 -2.58423 1.20813 6.85011 64 37 16 0.585809 13 5037 2 2728 12 3042
7912 -2.64962 1.03177 6.98774 122 91 62 1.36528 13 4739 2 2722 12 6117 9 9790
7911 -2.62379 1.02974 6.99488 113 82 54 0.793214 13 4738 2 2721 12 3035
7910 -2.63773 0.89397 7.10979 115 85 59 0.756123 13 4727 2 2717 12 6023 9 9785
7909 -2.87761 0.0201924 7.81867 100 73 44 1.36284 13 4174 2 2687 12 3154 9 9952
7908 -2.94558 -0.186257 7.99513 110 80 46 1.79621 13 4170 2 2684 12 3297
7907 -2.14026 1.69981 6.45505 104 74 50 0.199634 5 3037 2 2616 12 2823
7906 -2.29934 1.29462 6.7789 79 49 25 0.446368 13 4471 2 2608 12 2816
7905 -2.59998 0.724453 7.23668 88 57 32 0.877551 5 2271 2 2583 12 3021 9 7387
7904 -2.75312 0.105312 7.74852 93 60 29 0.876867 13 4176 2 2570 9 7563
7903 -2.92042 -0.165772 7.98507 116 83 49 2.13674 13 4171 2 2567 12 6167
7902 -2.03202 1.84373 6.33952 97 67 43 0.710597 10 8418 2 2454 12 5815
7901 -2.05587 1.73105 6.42595 84 52 29 1.15112 13 4494 2 2452 12 2710
7900 -2.16486 1.49681 6.6102 92 61 40 1.36163 13 4479 2 2446 12 2817
7899 -2.21116 0.973035 7.03893 113 82 54 1.10263 13 4220 2 2430 9 7098
7898 -2.36246 0.795601 7.18169 67 40 15 2.06555 13 4209 2 2425 9 9640
7897 -2.30373 0.815923 7.15316 112 81 53 1.22956 13 4212 2 2423 12 2796
7896 -2.31919 0.75468 7.20493 81 51 25 1.01792 13 4207 2 2422 12 2795
7895 -2.34644 0.751792 7.22987 122 88 60 0.887953 10 3816 12 5934 9 9638
7894 -1.15085 3.67839 4.82624 147 114 79 1.64607 13 4862 2 2344 12 2235
7893 -1.60388 2.31019 5.96178 134 104 76 0.427507 3 1698 2 2305 12 2484
7892 -1.71245 1.93924 6.27196 128 93 61 0.339812 13 4270 2 2292 12 2473
7891 -2.17037 0.992969 7.02351 118 87 59 1.45629 13 4222 2 2268 12 5868 9 9575
7890 -2.07054 0.979525 7.03677 120 85 55 1.02966 13 4001 2 2265 12 5797 5 2077
7889 -2.17956 0.923133 7.08042 114 83 55 1.49753 13 4006 2 2264 12 2799
7888 -2.18366 0.714034 7.24819 75 45 21 1.18823 13 3984 2 2251 12 5787 9 7091
7887 -2.20372 0.494168 7.42102 75 47 25 1.06056 13 3738 2 2242 9 9628
7886 -2.37491 0.44395 7.46512 121 90 61 1.04794 13 3971 2 2241 12 2780 9 7292
7885 -1.72581 1.71071 6.44558 123 88 56 0.768512 13 4036 2 2107 12 2464
7884 -1.85678 1.37547 6.71227 73 45 24 1.47042 10 4119 2 2096 12 2582 9 6812
7883 -1.91745 1.06497 6.96691 105 72 41 1.62 5 2081 13 3776 2 2085 12 2571
7882 -1.97458 0.68762 7.24962 73 43 17 1.711 13 3745 2 2069 12 2561
7881 -2.0277 0.627979 7.30247 110 79 50 1.06563 13 3741 2 2063 12 2559
7880 -2.02252 0.631936 7.31849 110 79 50 1.49256 13 3740 2 2062 9 9556
7879 -2.30768 -0.0267448 7.85211 118 85 52 0.473755 13 3382 2 2051 12 2768 9 7373
7878 -0.825327 3.91152 4.62933 157 115 77 0.813833 13 8541 2 2000 12 1984
7877 -0.936125 3.43183 5.02528 185 145 109 1.30362 14 3017 2 1982 9 1388 7 945
7876 -0.932769 3.42088 5.03753 143 107 73 0.938855 13 4314 2 1980
7875 -1.01127 3.21199 5.21042 175 136 97 0.956209 6 5186 13 8366 2 1976
7874 -1.50815 1.94889 6.25238 75 48 18 0.878653 13 4053 2 1956 12 2333
7873 -1.50225 1.77859 6.38966 73 46 17 1.37977 5 2573 13 3820 2 1953 12 2317
7872 -1.45802 1.78339 6.38986 116 85 54 1.38363 5 2571 2 1950 12 5540
7871 -1.7215 1.23267 6.83758 79 48 20 1.35608 13 3784 2 1942 12 2448 9 6810
7870 -1.76582 0.737122 7.19551 112 81 52 2.0188 13 3416 2 1927 12 5622
7869 -1.89526 0.760257 7.2195 110 79 50 1.23135 10 3283 2 1926 12 2564 9 9510
7868 -1.92921 0.687758 7.26884 73 45 21 2.13723 13 3407 2 1924 12 2557 9 6972
7867 -1.92921 0.687758 7.26884 73 45 21 2.13723 13 3408 2 1923 12 2558 9 6971
7866 -2.06013 0.343963 7.53581 122 89 56 1.92371 13 7856 2 1917 12 5704 9 10905
7865 -2.05711 0.136614 7.70212 119 88 59 1.35218 13 3086 2 1915 12 2544 9 7171
7864 -0.577742 3.86179 4.66847 136 97 66 0.493623 13 4116 2 1876 12 1851
7863 -0.656355 3.6971 4.79665 173 138 102 1.4216 10 8623 2 1868 12 1845 9 1251
7862 -1.06681 2.31186 5.95958 93 72 55 2.36231 13 7929 2 1839 12 2062
7861 -1.42011 1.72889 6.4181 123 88 54 1.50393 10 3862 13 3804 2 1832
7860 -1.29613 1.66184 6.48534 76 49 23 1.49791 10 3599 13 7907 2 1821 12 5442
