# 3D point list with one line of data per point:
#   POINT3D_ID, X, Y, Z, R, G, B, ERROR, TRACK[] as (IMAGE_ID, POINT2D_IDX)
# Number of points: 495, mean track length: 5.52148
4785 -3.19118 1.27846 6.064 195 186 170 1.12676 4 5670 7 4917 11 4842 5 5516 6 4983 10 4881
4784 -3.27747 1.30854 5.96101 160 146 118 0.786944 4 1457 5 5666 6 4974 7 4911 11 4841 10 4880
4783 -3.23909 1.26103 6.08885 188 180 161 0.93892 4 5662 5 5508 6 4976 7 4913 11 4840 10 4878
4782 -3.26481 1.27755 6.05372 199 190 173 1.99692 4 8302 5 8170 6 7268 7 7173 11 4839 10 4879 21 1611 20 1585
4781 -3.4435 1.23748 6.08464 201 194 178 0.995414 4 5658 5 5501 6 4970 7 4901 11 4833
4780 -3.4743 1.26304 5.9899 164 150 124 1.56866 7 4902 11 4832 10 1440
4779 -3.51281 1.25361 6.0401 199 187 171 0.575995 5 5502 11 4830 10 4870
4778 -3.5107 1.30469 5.91164 197 188 171 1.25767 7 4904 11 4828 10 4869
4777 -3.73897 1.21935 6.05692 149 133 108 1.49178 4 5651 5 5492 6 4957 7 4893 11 4827 10 4865
4776 -3.66854 1.28666 5.87431 196 189 171 1.8006 4 5655 5 5650 6 4960 11 4826 7 4896
4775 -3.78557 1.27205 5.87807 204 197 180 1.6659 5 5490 6 4956 7 4891 11 4824 10 4863
4774 -4.01254 1.18492 5.91661 196 187 170 1.58681 11 4823 4 1399 5 1372 10 4862
4773 -4.08833 1.1947 5.87725 158 146 119 1.77819 4 5640 5 5479 11 4821 10 4861
4772 -4.15621 1.18972 5.96824 202 195 179 2.49247 4 5637 5 5478 6 4950 11 4820 7 4880 10 4744
4771 3.97336 1.58397 6.82793 149 138 118 1.57034 6 5237 7 5168 11 4816 5 5604 4 5760 10 7087
4770 3.90087 1.51441 6.97485 152 139 120 1.10383 6 5035 7 4969 11 4815 5 5469
4769 3.56794 1.54091 6.7698 165 153 137 1.24071 6 1489 7 1838 11 4813 5 1580 4 1625 10 4848
4768 3.56935 1.542 6.77324 165 153 137 1.26215 6 1490 11 4812 5 1579 4 1624 10 4849
4767 3.46104 1.54996 6.66007 118 102 77 1.57994 6 5230 7 5157 11 4811 4 5755 5 5595 10 4846
4766 3.45867 1.48295 6.82062 143 130 113 1.43795 7 4966 11 4810 4 1616
4765 3.45971 1.48358 6.82848 143 130 113 1.42615 5 1575 6 1487 7 4967 11 4809 10 1351
4764 3.28541 1.51904 6.7023 153 141 122 0.566807 5 1574 6 1822 7 1829 11 4808 4 1615 10 1353
4763 3.42082 1.49115 6.87957 121 103 79 1.43263 6 5033 7 4965 11 4806 10 4841
4762 3.31334 1.46343 6.88191 109 94 70 0.844582 6 1476 11 4804 10 4836 5 5463
4761 3.0022 1.50132 6.72118 150 137 120 0.778533 5 5589 7 1503 11 4802 4 5745 10 4834
4760 2.90063 1.5193 6.60318 124 111 92 1.77005 7 1815 11 4801 10 4833
4759 3.07096 1.47209 6.82016 110 93 75 0.274326 7 4962 11 4800 10 7082
4758 2.6004 1.46677 6.52139 126 107 92 1.6053 7 7274 11 4796 5 8203 6 7410 4 8340 10 4827
4757 2.56942 1.44554 6.66232 109 86 72 2.39511 7 1496 11 4795 4 1596 10 7079 6 7298 5 8200
4756 1.75145 1.42909 6.49606 48 32 17 0.592866 5 5577 7 5128 11 4792 4 5736 6 5023 10 4822
4755 1.29474 1.41973 6.47535 40 23 13 0.702729 5 5572 11 4789 4 8330 10 4821 10 7074
4754 -0.636656 1.15101 5.9804 135 79 65 1.11101 4 5611 11 4781 5 5458 6 5019
4753 -2.04283 1.27104 6.2954 86 82 71 1.53705 4 5693 5 1481 6 1433 7 4945 11 4774 10 1308
4752 -1.87228 1.10099 6.01125 116 38 28 2.56972 4 5605 5 1299 11 4773 10 1306 17 1322
4751 -2.22696 1.26584 6.27552 155 147 134 0.797207 4 5690 5 5541 6 5005 7 4942 11 4768 10 1302
4750 -2.49815 1.26178 6.27038 196 188 175 0.803527 4 5686 5 5537 6 4999 7 4937 11 4762 10 4800
4749 -2.52257 1.20998 6.38067 191 183 168 0.346951 4 5595 5 5448 6 4921 7 4844 11 4761 10 4797
4748 -2.53871 1.23896 6.30765 197 190 174 0.593848 4 5685 5 5536 6 4996 7 4934 11 4759 10 4798
4747 -2.62289 1.21203 6.34229 163 149 123 1.06266 6 4919 11 4758 4 1299 5 1282 7 1280 10 1287
4746 -2.66542 1.2138 6.32223 148 134 108 1.09629 4 5593 5 1447 6 4917 7 4840 11 4757 10 4794
4745 -2.69412 1.2151 6.33311 197 188 173 0.885371 4 5592 5 1444 6 4916 7 4838 11 4756 10 4793
4744 -2.72239 1.146 6.46317 144 123 102 1.1813 7 1271 11 4754 4 1296 5 1279 6 1254 10 1273
4743 -2.74059 1.17087 6.38719 181 170 154 0.79271 6 4911 7 4834 11 4753 4 1297 5 1280 10 4790
4742 -2.7937 1.18299 6.39652 189 180 165 0.895224 4 5588 5 5444 6 4910 7 4833 11 4752 10 4792
4741 -2.7937 1.18299 6.39652 189 180 165 0.895224 4 5587 5 5443 6 4909 7 4832 11 4751 10 4791
4740 -2.7999 1.23735 6.24123 146 126 101 1.65928 6 4992 7 4929 11 4750
4739 -2.89497 1.22005 6.22542 182 168 152 1.08413 4 5680 5 5525 6 4990 7 4927 11 4748 10 4789
4738 -2.96112 1.13608 6.41394 201 192 175 0.886467 4 5582 5 5433 6 4902 7 4824 11 4746
4737 -3.18198 1.20072 6.20486 196 187 170 0.712279 4 5664 11 4741 5 5510 6 4895 7 4817 10 1247
4736 -3.21188 1.19309 6.28162 149 130 96 1.12802 4 5571 5 1264 6 1241 11 4740 7 1253 10 4784
4735 -3.24606 1.23022 6.19111 150 129 102 1.08434 4 5663 5 5509 6 4975 7 4912 11 4738 10 4782
4734 -3.38868 1.1882 6.1995 201 192 175 0.592641 4 5566 5 5505 6 4891 11 4737 10 4774
4733 -3.60613 1.17458 6.18456 203 195 179 1.21183 4 1258 5 1405 6 4885 7 1231 11 4733 10 4769
4732 -3.54207 1.14695 6.31215 197 189 170 1.18572 4 5560 5 5413 6 4884 11 4730 7 4806 10 4767
4731 -3.61971 1.13731 6.29781 162 138 114 1.13738 4 5557 5 5411 6 4879 7 4801 11 4729 10 4766
4730 -3.65852 1.12857 6.30856 202 196 180 0.849021 6 4878 11 4728 4 5556
4729 -3.66048 1.12933 6.31157 202 196 180 1.03328 5 5410 6 4877 7 4800 11 4727 4 5555 10 4764
4728 -3.89763 1.11481 6.27791 190 181 164 1.10155 5 5401 6 4864 7 4789 11 4724 10 4760
4727 -3.84776 1.16512 6.12773 157 145 119 2.18294 4 5552 5 5487 6 4867 11 4722 7 4791
4726 -4.08925 1.19049 6.04628 174 162 138 2.27194 6 4859 7 4784 11 4715 5 1371 10 4751
4725 -4.1873 1.11176 6.17966 164 150 123 2.3521 4 8242 5 5389 6 7212 7 7121 11 4712 10 4747
4724 -4.16622 1.12107 6.09106 195 188 170 0.687552 4 5542 5 5384 11 4711 10 4749
4723 -4.30948 1.08863 6.19304 191 182 165 2.65008 6 1176 11 4708 5 5377 7 4776 4 5538 10 1193
4722 4.31499 1.5267 7.10289 115 103 77 1.81653 7 1525 11 4704 5 1339 4 1359 10 4738
4721 4.12876 1.51731 7.02695 119 105 78 1.9417 6 1500 7 1523 11 4703 5 1337 4 1355
4720 3.74815 1.44954 7.09095 117 101 76 1.62567 6 1483 11 4696 5 1334 4 5623 10 4733
4719 3.36528 1.43006 6.95154 128 115 96 1.77017 6 1474 11 4695 4 1345 5 1328
4718 3.54392 1.40985 7.08651 109 93 67 0.786293 5 1327 6 4936 7 1505 11 4694 4 1344 10 4732
4717 3.50812 1.37453 7.15893 127 112 93 1.66983 5 1326 11 4693 6 1298 7 1309 4 1343 10 1159
4716 0.550533 1.1221 6.03936 128 105 73 0.634333 4 5614 5 1313 6 1295 11 4686 10 4728
4715 0.550533 1.1221 6.03936 128 105 73 0.634333 6 1294 11 4685 4 5615 5 1312 10 4727
4714 -0.808277 0.962218 5.84452 180 160 135 0.834134 6 4928 11 4682 21 7380 22 7470 20 7332 24 8107 26 3786 25 3872 23 5320 27 5138 29 6713 18 5469 16 5581 17 5551 12 843
4713 -0.816202 0.92873 5.8299 185 167 141 1.04656 4 1150 5 1174 7 4856 11 4681 10 4723 20 4742 22 1351 24 1148 23 5319 28 1420 29 1344 19 1299 18 1299 16 1184 17 3160
4712 -2.43144 0.946593 5.91707 135 178 168 1.35111 4 5518 11 4669 5 5349 6 4816 7 4750 10 4711
4711 -2.81284 1.10718 6.56433 152 136 111 0.833711 4 8265 5 5437 7 4828 11 4668 6 7236 6 4905 10 4712 10 7012
4710 -2.46508 0.894358 5.9025 130 96 84 1.13768 4 5516 6 4814 7 4749 11 4667 5 5347 10 4710
4709 -2.98123 1.11154 6.48317 198 191 174 0.810408 4 5579 5 5432 6 4901 7 4823 11 4663 10 4707
4708 -3.00112 1.07745 6.57036 170 155 129 0.885966 6 1121 7 1134 11 4662 4 1125 5 1149 10 1114
4707 -3.02886 1.0712 6.57528 208 200 185 0.760211 4 5514 5 5345 6 4805 7 4746 11 4661 10 1113
4706 -3.0668 1.09014 6.52154 152 134 110 0.818869 4 5572 5 5427 6 4800 7 4819 11 4660 10 4705
4705 -2.97552 1.04872 6.67149 135 119 86 0.649035 4 8224 5 8091 6 4806 7 7087 11 4659 10 4704 10 7008
4704 -3.11996 1.00334 6.74141 138 117 88 0.745566 5 5338 7 1129 11 4658
4703 -3.40841 1.03489 6.57552 158 138 107 0.797907 4 1108 6 1102 7 1119 11 4654 10 1089
4702 -3.40804 1.03519 6.57473 158 138 107 1.05104 4 1107 5 1136 6 1101 7 1118 11 4653 10 1088
4701 -3.40548 1.01741 6.61184 202 193 178 0.65252 6 4795 11 4652 4 5507 5 5335 7 4736 10 4700
4700 -3.5254 1.08244 6.41968 195 186 169 0.854314 5 1245 7 1238 11 4649
4699 -3.52168 1.08131 6.41328 195 186 169 0.941522 5 1246 11 4648 6 1225 7 1237
4698 -3.8372 0.980995 6.61486 201 195 176 0.869007 4 5485 5 5306 6 4784 7 4724 11 4642 10 4690
4697 -3.87963 1.03002 6.51205 199 192 174 1.13633 5 5313 6 4780 7 4721 11 4638 4 5481 10 4684
4696 -3.88147 1.04154 6.45922 202 193 178 1.30695 4 5480 5 5312 6 4781 7 4722 11 4637 10 4687
4695 -3.91162 1.02578 6.51591 134 115 89 0.841654 5 5311 11 4635 10 4683
4694 -3.91884 1.02791 6.52739 134 115 89 1.05921 4 5479 5 5310 6 4778 7 4717 11 4634 10 4682
4693 -3.97945 1.01919 6.50181 197 188 171 1.18731 4 5477 5 5304 6 4775 7 4715 11 4633 10 4680
4692 -3.9854 0.992324 6.57335 149 129 104 1.38201 4 5475 5 5307 6 4772 7 4711 11 4631 10 4679
4691 -4.0092 1.07587 6.32225 194 186 168 1.67406 5 5394 11 4629 4 5547 7 4786 6 4861 10 1061
4690 -4.0454 1.0571 6.38676 156 142 115 0.926927 6 4768 11 4628 10 4676 8 732
4689 -4.03393 1.05503 6.36942 156 142 115 1.44661 4 5546 5 5392 6 4767 7 4705 11 4627 10 4675
4688 -4.08762 1.0152 6.48854 201 194 178 1.32969 4 5470 5 5302 6 4764 7 4707 11 4625 10 1058
4687 -4.12251 0.948398 6.56432 203 196 180 1.5798 4 8208 5 8075 6 7176 7 7079 11 4624 10 4614
4686 -4.19669 1.04292 6.29864 203 196 180 1.79647 5 5386 6 4762 11 4619 4 1220 7 1078 10 1054
4685 -4.32823 0.996529 6.4742 199 192 176 1.43778 4 5468 7 7077 11 4616
4684 -4.32944 0.996875 6.47619 199 192 176 1.81826 4 5467 5 5299 6 4760 11 4615 7 4698
4683 -4.37448 1.0019 6.40868 192 183 166 1.87496 4 1054 5 5295 6 4756 11 4614 10 1050
4682 -4.27269 1.04764 6.24662 191 185 169 1.01927 4 5540 5 5380 11 4612 10 4669
4681 -4.41096 0.993847 6.42836 149 133 103 1.75557 5 1076 6 1054 7 4695 11 4610 10 4665
4680 -4.40503 0.992599 6.42005 149 133 103 1.86419 4 1053 5 1075 6 1053 7 4694 11 4609 10 4664
4679 -4.41246 0.996171 6.38788 194 186 168 0.985424 5 1074 11 4608 4 1049
4678 3.86791 1.27774 7.41763 121 106 87 1.42252 6 1163 7 1172 11 4606 4 1174 5 1184 10 1034
4677 3.885 1.2458 7.48666 116 103 85 1.55949 6 1161 7 1171 11 4604 4 1170
4676 3.52278 1.28431 7.29204 85 67 45 1.23994 5 5363 11 4602 10 4656
4674 -1.18102 0.758602 5.77697 184 124 98 0.701542 7 4756 11 4598 21 7349 22 9081 20 8939 18 6840 19 6716 16 5543 17 5520
4673 -3.06076 0.97891 6.81631 150 123 102 0.818327 4 5513 5 5342 6 4802 7 4745 11 4596 10 4640
4672 -3.09632 0.976501 6.82994 197 186 172 0.943176 4 5512 5 5341 6 4801 11 4595 7 4743 10 4638
4671 -3.15262 0.948395 6.88495 192 183 166 0.924096 4 969 5 5259 6 986 7 4663 11 4594 10 998
4670 -3.59415 0.863911 6.94123 127 96 68 1.23619 6 7144 7 7044 11 4587 4 8177
4669 -3.59049 0.863272 6.93463 127 96 68 1.49264 5 8037 6 7145 7 7045 11 4586 4 8178
4668 -3.61995 0.861331 6.90857 132 105 77 0.864849 4 938 5 959 6 954 7 968 11 4585 10 4631
4667 -3.60427 0.855951 6.87638 132 105 77 1.14113 4 937 5 960 6 953 7 967 11 4584 10 4630 22 4956 21 4933 20 1374
4666 -3.63317 0.949516 6.70141 198 187 171 1.43585 4 5495 5 5326 11 4582 6 4716 10 4629
4665 -3.77863 0.902141 6.78152 171 156 127 1.3222 4 5401 5 5242 6 4706 7 4647 11 4581 10 4623
4664 -3.7789 0.902405 6.78187 171 156 127 1.4796 4 5402 5 5243 6 4707 11 4580 10 4624
4663 -3.67061 0.863845 6.87255 132 107 77 0.931054 4 5409 5 5246 6 4713 11 4579 10 4627
4662 -3.75037 0.89617 6.78099 194 187 168 0.995328 4 5403 5 5244 6 4705 7 4648 11 4577 10 4625
4661 -3.83263 0.945431 6.65878 198 189 172 0.71743 4 5482 6 4704 11 4576 5 5314 10 4622 11 6870
4660 -3.93536 0.826301 6.88154 168 153 123 1.34793 7 4641 11 4573 5 5239 4 5397 6 4697 10 4543
4659 -3.97968 0.854355 6.85267 132 107 78 1.33181 4 8171 5 8032 6 7140 7 7041 11 4570 10 6967
4658 -4.12123 0.911356 6.70033 195 188 170 1.36949 5 5300 11 4565 4 912 6 931 7 947 10 4615
4657 -4.12828 0.841902 6.89613 159 145 119 1.55859 6 934 11 4564 10 955
4656 -4.13376 0.823169 6.86908 201 192 175 1.26458 4 5389 5 5230 6 4687 7 4634 11 4562 10 953
4655 -4.20112 0.882149 6.74317 196 187 170 1.28904 4 5384 5 5224 6 930 7 4628 11 4561 10 4613 13 723
4654 -4.36326 0.826827 6.80981 199 192 176 1.42528 4 8165 5 8023 6 7129 7 7030 11 4560 10 4611
4653 -4.3709 0.871406 6.70881 193 184 167 1.14387 4 8166 5 5215 6 4683 7 4624 11 4557 5 8025
4652 -4.48603 0.890284 6.63639 202 193 176 1.23895 5 8020 6 7128 11 4555 10 4607
4651 -4.61648 0.814808 6.77798 144 122 101 1.46752 4 5370 5 5205 7 4620 11 4552 10 4602
4650 -4.6304 0.839253 6.71151 169 159 132 1.83229 4 886 5 5210 6 4676 7 911 11 4546 10 925
4649 -4.67693 0.816479 6.76319 196 191 172 1.77626 4 5368 6 7122 11 4545 4 8160 7 7026 10 4595
4648 3.76882 1.15286 7.73893 35 17 7 1.29221 5 5275 11 4539 4 1009 10 912
4647 1.57773 0.803755 5.95794 62 91 77 1.92518 11 4537 20 8947 10 4581 19 3537 36 5672 37 5755 15 5695
4646 0.305645 0.689437 5.83571 69 86 96 1.04749 4 1001 5 5269 6 1015 11 4535 10 4576 21 7332 22 4797 20 7240 26 530 24 944 27 4974 28 4450 18 3607 16 4517 17 4481 14 1057
4645 -0.747853 0.602421 5.79073 170 135 103 1.42427 5 5174 7 4674 11 4530 21 7327 20 7235 23 8124
4644 -0.971631 0.657499 5.78528 165 89 63 1.66095 2 4613 5 8053 11 4529 21 8984 20 4680 24 5225 23 5262 29 6586 29 8148 18 3601 19 5298 12 4403 13 4386 35 800 15 805 32 671 31 4187 30 687
4643 -2.32231 0.612152 5.73646 142 142 168 1.83794 4 5431 5 5262 6 4730 7 4670 11 4522 10 4563 22 7424 26 5904 25 5977 24 10004 23 10079 27 10623 28 9207 29 9137 12 704 31 8253 32 6678 30 6678
4642 -3.58501 0.801264 7.01014 150 131 101 1.02346 4 5412 5 5249 6 4635 7 4587 11 4512 10 4552
4641 -3.58501 0.801264 7.01014 150 131 101 1.02346 4 5411 5 5250 6 4636 7 4588 11 4511 10 4551
4640 -3.64393 0.761744 7.12762 189 177 161 1.39883 4 5329 5 7986 6 7099 7 7002 11 4510 10 4549
4639 -3.64393 0.761744 7.12762 189 177 161 1.39883 4 5330 5 7987 6 7100 7 7003 11 4509 10 4548
4638 -3.61146 0.793549 7.01353 190 179 161 1.90723 4 943 5 963 6 826 7 831 11 4508 10 4550
4637 -3.76424 0.770104 7.04047 199 190 175 0.974248 4 5328 5 5153 6 4634 7 4586 11 4507 10 4547
4636 -3.84575 0.743929 7.1495 182 172 154 1.19766 4 5327 5 5151 6 4631 11 4506 10 853
4635 -3.91476 0.688594 7.34434 161 145 119 1.90577 4 801 6 7093 11 4505 7 818 5 7980 10 4487
4634 -3.98165 0.74278 7.16314 149 130 103 0.634193 6 7092 11 4503 10 4545
4632 -4.10402 0.674372 7.27701 189 178 158 0.902918 6 7087 11 4499 7 6992 10 6886
4631 -4.17401 0.805984 6.93894 142 126 104 1.38447 4 5386 5 5228 6 4620 7 4630 11 4498 10 4540
4630 -4.17401 0.805984 6.93894 142 126 104 1.38447 4 5387 5 5227 6 4621 7 4631 11 4497 10 4539
4629 -4.15424 0.76805 7.04289 155 138 108 0.952139 4 5318 5 8027 7 4576 11 4496 6 4622 6 7086 10 4541
4628 -4.17528 0.75386 7.00778 205 196 179 1.14718 4 5317 7 4575 11 4495 5 5143 6 4618 10 4538
4627 -4.25018 0.776097 6.96506 153 139 110 1.1578 4 5312 5 5223 6 4616 7 4572 11 4494 10 4537
4626 -4.25018 0.776097 6.96506 153 139 110 1.1578 4 5311 5 5222 6 4615 7 4571 11 4493 10 4536
4625 -4.32282 0.750106 6.98402 149 130 102 1.20982 4 5310 5 5139 6 4613 7 789 11 4492 10 838
4624 -4.38994 0.74218 7.01812 200 191 174 0.552025 6 4611 7 4567 11 4490
4623 -4.42832 0.740019 6.988 189 181 162 1.74598 5 5136 11 4489 7 4566 10 4532
4622 -4.46749 0.700922 7.12848 169 157 133 1.55274 4 5309 5 5138 6 4610 7 4564 11 4488 10 4531
4621 -4.81623 0.665413 7.10211 185 174 156 1.75389 4 760 6 4598 7 4555 11 4483 5 784 10 4529
4620 -4.83513 0.667263 7.12913 185 174 156 0.489335 6 4599 7 4556 11 4482 10 4528
4619 -4.96335 0.653139 7.08119 187 178 163 2.211 4 5302 5 5127 6 4596 7 4552 11 4481 10 4526
4618 4.72411 1.11282 8.05735 66 51 32 1.85354 5 884 7 1046 11 4478 4 858 10 4524
4617 4.72803 1.06505 8.12563 59 46 27 0.780784 6 1030 11 4477 10 4523
4616 1.78215 0.574534 6.05555 162 21 30 1.57076 6 884 11 4476 21 7309 22 7389 20 7220 19 5290 18 5412 16 5513 17 5487
4615 1.61459 0.664743 5.98866 151 116 92 1.69964 4 853 6 1022 11 4474 21 7339 24 882 23 926 28 1150 12 856 37 1485 33 762
4614 1.54605 0.605245 5.98716 166 131 106 1.11819 7 4612 11 4473 16 3037
4613 1.54048 0.582425 5.98945 140 93 60 1.54212 7 899 11 4472 10 4516 21 4764 20 4612 16 3036 17 3041 13 881 35 1416 15 1410
4612 1.38669 0.541871 5.98471 132 104 65 2.01002 11 4469 17 4449 36 1181 35 1215 14 5567
4611 1.22324 0.588612 5.95063 68 66 70 1.52373 5 5180 11 4468 7 4608 21 7303 20 7241 18 5403 17 3037 13 814 35 5570 14 5565 15 5519
4610 1.11127 0.547833 5.93479 168 152 116 1.44832 5 871 11 4467 21 4759 22 4763 15 1227
4609 -0.93782 0.461392 5.80523 105 63 43 2.011 11 4457 10 786 20 4592 24 5131 23 5175 4 5271 27 7580 21 7292 28 6619 18 5395 19 5280 16 4476 17 4434
4608 -1.19269 0.392919 5.622 183 165 161 1.06703 7 741 11 4456 4 5270 10 4438
4607 -2.21338 0.510401 5.71784 227 227 215 1.71912 6 4644 11 4453 23 11210 26 3750 28 8186 32 6631 32 8127 31 8222
4606 -4.17918 0.612373 7.50524 180 164 149 2.32636 4 5234 5 5063 6 4544 7 4498 11 4439 10 4485 26 7154 1 6902 2 6926 3 6786 25 7240 24 11725 23 11814 27 11353 28 9806
4605 -4.26822 0.607711 7.42865 178 165 150 1.89285 4 5232 11 4437 7 6944 5 7943 10 6883 24 8197 25 4050 26 3962 23 8285 27 9502
4604 -4.68948 0.584222 7.34774 105 70 47 1.73415 5 5061 6 4539 7 4495 10 748 11 4436 18 3702 19 3639 13 668 36 514 35 537 21 7363 20 4714 22 7445
4603 -4.95659 0.621838 7.19667 174 165 150 2.31079 5 7971 6 7039 7 6943 11 4435 4 9580 10 6881
4602 -5.05521 0.620033 7.19227 149 135 116 1.43771 4 5300 5 5124 6 4536 11 4434 10 4479
4601 1.78539 0.525434 6.07653 162 17 24 1.41383 6 4667 11 4428 10 4473 22 7387 13 4405 14 8163
4600 1.88261 0.440754 6.16912 11 8 15 1.5938 5 5109 6 760 7 4549 11 4427 4 5287 10 4469 21 7310 22 7392 20 4615 18 3526 19 3466 16 956 17 2990 12 4419 9 769 13 4406 37 5585 36 5585 35 5651 14 5572 15 8095 33 5446 34 5341
4599 1.07028 0.514429 5.93219 72 69 79 1.1096 4 5283 5 5106 6 875 7 889 11 4426 10 4463 20 4605 21 4758 22 4761 24 872 27 4869 28 1066 29 1026 18 1046 19 3458 16 3022 17 3030 13 810 12 772 37 1164
4598 0.924765 0.50147 5.92621 188 175 148 0.878165 5 761 11 4421 12 771 13 807 36 1022 35 1076 14 1061 15 1061
4597 -0.352159 0.311344 5.50002 193 187 191 1.48861 4 5274 5 5098 6 4580 7 4538 11 4412 10 4450 21 7270 22 9028 18 5325 19 5222 13 4332 12 4337
4596 -0.448001 0.399422 5.48122 212 206 210 1.01466 5 5097 6 4652 11 4409 10 4449
4595 -0.466148 0.336667 5.50366 226 223 230 1.72992 4 5273 5 5096 6 743 7 749 11 4408 10 4447
4594 -0.689668 0.386192 5.86722 185 159 144 2.0229 2 657 11 4404
4593 -1.12083 0.31784 5.51749 156 139 134 1.34064 4 5268 5 5094 6 738 7 4532 11 4400 10 6860
4592 -1.23466 0.231103 5.48865 197 187 195 0.912354 4 8058 5 7921 6 7031 7 6927 11 4398 10 4410
4591 -1.572 0.293489 5.839 119 187 177 0.9993 2 646 7 4529 11 4394 27 7541 28 6570 29 6462 32 4121 31 4181 30 680
4590 -2.30213 0.338964 5.77927 170 222 215 1.98292 4 5258 5 5086 6 4566 7 4520 21 7278 18 5351 9 585 12 4331 13 4322 8 610 37 602 14 577 15 588 36 516 35 539
4589 1.84054 0.419466 6.16606 68 65 76 1.48481 6 4591 11 4383 22 7391 21 4720 22 4772 20 4614
4588 0.687526 0.3458 6.00268 169 159 124 1.34292 4 5216 11 4379 10 4426
4587 0.687526 0.3458 6.00268 169 159 124 1.34292 4 5217 11 4378 10 4425
4586 -0.339569 0.220433 5.53076 219 214 221 1.22592 5 5046 6 4522 7 674 11 4376 4 648 10 4417
4585 -0.856807 0.231111 5.95846 35 48 46 1.55496 4 641 5 670 6 673 7 667 11 4374 10 4416 21 7266 22 7349 20 4542 18 5363 19 5255 16 4435 9 608 12 649 13 681 8 630
4584 -0.860135 0.210368 5.92821 130 115 120 1.43193 4 640 6 672 11 4373 10 4415 5 5039
4583 -0.851345 0.190305 5.93426 140 128 132 1.84462 7 666 11 4372 10 671
4582 -0.911818 0.255285 5.88975 133 114 116 0.501694 5 5040 6 4518 11 4370
4581 -1.01171 0.105056 5.60828 116 99 107 1.3966 4 5173 5 5004 6 4516 7 4481 11 4369 10 4413 9 600 12 4295 20 4487 21 4618 22 4649 13 4293 8 627 36 5246 37 613 35 550 14 594 15 5261 33 427 34 480
4580 -1.07927 0.110193 5.52994 203 196 203 1.04887 4 5171 5 604 6 665 7 662 11 4368 10 4412 9 598 20 7139 21 7225 22 7300 12 595 13 624 8 623 36 526 37 608 35 545 14 588 15 595 34 430
4579 -2.29463 0.191778 5.88085 243 212 203 1.62387 4 628 6 4503 11 4347 5 646 7 645 5 7907 10 4390 21 4683 22 1061 20 1037 9 586 12 585 13 615 8 611 36 445 37 514 35 456 14 512
4578 1.45746 0.199326 6.28202 32 22 13 1.50033 7 4488 11 4339 5 627 10 4385
4577 1.44274 0.184799 6.29651 72 64 52 1.77593 5 5016 7 6934 11 4337
4576 -0.27871 0.113138 5.74736 179 177 180 0.736775 4 5180 7 4483 11 4335 6 4492 10 4381
4575 -0.675521 -0.0106368 5.9321 165 150 157 1.4652 4 8025 5 5007 11 4330 10 6817
4574 -0.764749 0.0524316 6.05371 87 65 78 2.02016 4 5177 5 618 6 622 7 4453 11 4329 10 4377 21 7235 22 7310 20 7153 18 5324 19 3390 16 4395 17 4355 12 605 36 611
4573 -0.782457 0.0629377 6.01346 138 122 133 1.31183 4 5176 6 4488 11 4328 10 4378 9 552 8 582 36 5278
4572 -0.823206 0.0194864 5.98607 86 68 84 1.16572 4 5175 5 5006 6 4485 7 4451 11 4327 10 4375
4571 -0.973619 -0.0271093 5.86712 185 175 186 0.988668 6 619 7 4449 11 4326 4 547 5 570 10 4374
4570 -1.66743 0.0237206 6.03322 171 214 210 1.01202 4 5167 5 595 6 4475 7 4446 11 4325 10 615 8 578
4569 -1.77283 0.0727104 5.85695 156 182 197 1.07913 4 587 5 593 6 607 7 609 11 4324 10 4370
4568 -1.88839 -0.0417327 5.96415 159 180 200 0.832689 4 5129 5 4970 6 4445 7 4415 11 4323 10 4367
4567 -2.27648 0.0199028 6.07336 145 98 92 1.11775 4 5153 5 4986 6 4461 7 599 11 4320 10 4366
4566 -2.30509 -0.00801093 6.1052 199 127 121 1.2925 4 5152 5 588 6 595 7 4433 11 4319 10 608
4565 -2.47877 -0.0767509 6.26366 175 169 187 1.57545 4 8016 5 7881 6 6983 7 6870 11 4318 10 6808
4564 -2.43778 0.0250886 6.07253 123 121 158 0.790102 4 8030 11 4317 5 7893 6 6997 7 6891 10 4365
4563 0.558202 -0.0882868 5.87784 23 23 23 1.22319 4 564 6 581 7 587 11 4313 10 596
4562 0.558202 -0.0882868 5.87784 23 23 23 1.22319 4 565 6 580 7 588 11 4312 10 597
4561 -1.62968 -0.0749446 6.17686 204 126 121 0.946854 4 5138 5 4976 7 4418 11 4308
4560 -1.78647 -0.149934 6.34825 113 111 132 0.690792 4 5130 6 6985 7 6873 11 4306 10 4351
4559 -1.9924 -0.203944 6.1497 76 88 75 0.908515 4 502 5 516 6 523 7 524 11 4301 10 4344
4558 -2.31665 -0.0893328 6.27288 172 123 132 1.32487 4 5124 5 554 6 4438 11 4300 10 4343
4556 -0.427814 -0.322013 5.79516 132 117 119 1.09632 2 427 11 4291 3 4252
4555 -0.553159 -0.208308 5.80826 113 94 100 1.32257 4 5109 5 4961 6 4430 7 4425 11 4289 10 4335 10 6781
4554 -1.52793 -0.305917 6.50176 166 101 63 1.25996 4 8007 6 4420 7 4398 11 4284 5 7870 5 4952 10 4327 10 6776
4553 -2.02722 -0.320155 6.28979 92 119 100 0.530531 4 5099 5 4949 6 4415 7 522 11 4283 10 4321
4552 -2.54442 -0.308749 6.67113 130 45 6 1.4418 5 4946 4 499 20 936 25 5839 24 9892 23 9951 27 9280 21 4592 28 8052 29 8001
4551 -3.4605 -0.397596 6.62202 155 82 31 1.70381 6 4379 11 4279 10 534 14 389 15 406 32 8094 26 3664 31 8193 30 8161
4550 3.54601 -0.203139 7.13374 87 50 32 1.20345 6 6979 11 4276 5 7878
4549 3.54601 -0.203139 7.13374 87 50 32 1.20345 6 6978 11 4275 5 7877
4547 -0.454826 -0.362691 5.78471 107 88 90 1.59485 5 4929 6 487 7 539 11 4264 10 4299 21 7137 22 4493 20 7047 24 4886 23 4931 18 5235 19 5085 16 4320 12 477 13 561 36 5197 37 527 14 523 33 399
4546 -0.437786 -0.474599 5.75291 112 92 91 1.48725 5 501 11 4263 10 4254 20 7004 26 300 24 4845 27 4542 18 5196 19 5084
4545 -0.538259 -0.358815 5.75105 131 116 119 1.4575 4 5087 6 4428 11 4262 10 4298 20 7046 17 5367
4543 -3.99543 -0.578304 6.53783 190 138 96 2.42133 7 4309 11 4250 6 4340 4 5027 5 4912 10 487
4542 1.38983 -0.49181 6.02621 23 12 6 1.43974 4 446 6 510 7 514 11 4246 5 471 10 4283
4541 1.33749 -0.541131 5.92794 92 75 57 1.33494 5 466 6 467 7 469 11 4245 10 4282
4540 0.970729 -0.471755 5.7665 109 103 91 1.37131 4 442 7 509 11 4242 10 476
4539 0.971885 -0.511011 5.78101 110 102 89 1.56647 4 5061 5 4903 6 4401 7 4382 11 4241 10 6759 20 7022 21 7071 22 7191
4538 0.923758 -0.524729 5.7513 127 119 108 1.03622 4 439 5 459 7 503 11 4237 10 4275 21 7064 22 7144 20 6970 19 5051 16 5390 17 5343
4537 0.741317 -0.544452 5.70342 152 148 139 1.15005 4 5053 6 442 7 4338 11 4232 5 452 10 4267
4536 0.44077 -0.494184 5.88475 161 162 157 1.55346 6 4392 7 4368 11 4231
4535 0.363463 -0.590483 5.83724 191 190 185 1.18595 4 5043 5 434 6 424 7 426 11 4229 10 387 21 4360 22 4370 20 4229 18 3201 19 3151 16 2710 17 4210
4534 0.175063 -0.588118 6.08693 6 5 3 1.33492 4 5042 5 4886 6 4356 7 4327 11 4228 10 4261
4533 0.0325962 -0.536256 6.00446 100 88 88 0.985186 4 411 5 429 11 4225 22 4447 20 4283 18 5203 19 5090 16 4294 17 4251 35 471 14 464 15 536
4532 3.52363 -0.520579 6.84226 77 26 5 2.44924 1 290 6 4407 11 4211
4531 1.41844 -0.552203 6.02194 31 15 6 0.722809 5 467 11 4207 10 4239
4530 1.03887 -0.619417 5.73482 133 125 112 1.27318 4 360 11 4203 10 4231 21 7067 22 7147 20 6973 18 5115 19 5005 16 4212 17 4170 9 441 13 460
4529 1.1057 -0.626545 5.74881 142 133 124 1.2233 4 363 5 392 6 460 7 462 11 4201 10 4229 21 7074 22 7152 20 6974 18 3151 19 3098 16 4217 17 4175 12 435 13 459 8 465 35 493 14 543 15 556
4528 1.05725 -0.662973 5.71664 145 141 132 0.594152 5 4863 11 4200 9 443
4527 1.05824 -0.6627 5.71939 145 141 132 0.91957 5 4862 6 4370 7 4340 11 4199 4 5016 10 4228 21 7021 22 7084 20 6930 19 3091 16 4211 17 4169 9 442 13 457
4526 1.00218 -0.58616 5.74033 113 106 90 1.56519 4 5062 5 4899 7 458 11 4197 10 4232 22 7145 12 4172 36 5207 37 5266 15 5224 34 399 33 406
4525 0.985697 -0.612948 5.7311 118 111 95 0.933859 4 354 5 4860 11 4196 10 4225 21 4376 22 4387 20 4246 18 3149 16 2648 17 4164
4524 0.98505 -0.612295 5.72856 118 111 95 1.21424 4 353 6 4369 7 452 11 4195 10 4224 21 4375 22 4386 20 4245 18 3148 19 5003 16 2647 17 4163 13 453 37 551
4523 0.759116 -0.652735 5.68833 149 145 133 1.74842 5 4852 11 4190 10 6731 21 7016 22 7139 20 6964 9 433 12 4162 13 4179 8 6491 37 5225 15 7883
4522 0.542495 -0.582861 5.76784 172 172 164 1.26516 11 4187 10 4218 21 7057 22 8915 20 6961 20 8737 18 6675 19 6542 16 6186 17 5339
4521 0.420187 -0.672152 5.76058 183 184 176 1.73021 4 4996 5 375 6 4358 7 423 11 4185 10 4216
4520 0.343686 -0.699406 5.81078 213 214 209 1.30971 4 4992 5 4833 6 4305 7 4258 11 4183 10 4214 26 255 20 6956 21 7054 22 7131 25 263 24 4801 23 4848 27 4492 28 3934 29 3835 18 5104 19 4987 17 4150
4519 0.163505 -0.678511 5.9586 175 174 170 0.780698 4 7944 11 4182 10 6720
4518 0.0148633 -0.695663 5.9743 133 123 122 1.30339 4 325 5 4829 6 4301 7 314 11 4181 21 4354 20 6953 22 4368 19 3149 16 4248 17 2707 13 431 8 436 36 398 35 409
4517 -0.0196131 -0.624319 5.96032 139 127 128 1.42358 4 408 5 4882 6 4352 7 4323 11 4180 10 4212 21 4419 22 7173 20 7005 18 3199 19 3148 16 4287 17 4246 9 417 13 433 8 438 36 400 37 445 35 410 15 479
4516 1.34701 -0.706893 5.80911 13 9 3 1.29043 4 374 5 4869 6 386 7 373 11 4169 10 4198 21 7030 22 4332 20 4183 18 3163 19 3114 16 2581 17 2586 9 452 12 4180 13 4194 8 470 36 5220 37 5276 35 5278 14 5290 15 5238 33 383 34 365
4515 1.32075 -0.739964 5.76263 25 21 12 0.870994 4 366 11 4167 6 384 10 4197
4514 1.36733 -0.818425 5.71347 166 162 151 0.779231 4 298 5 339 6 380 7 366 11 4166 10 348
4513 1.28312 -0.695435 5.79589 40 31 21 1.03532 4 5019 5 4867 6 4330 7 4297 11 4165 10 4195
4512 1.29348 -0.797084 5.72099 192 189 182 1.48217 4 4966 5 4809 6 4328 7 4296 11 4162 12 396 13 403
4511 1.16042 -0.822501 5.68397 198 195 190 0.903749 4 291 6 372 7 4290 11 4159 10 4188
4510 1.15851 -0.82287 5.6724 198 195 190 1.42575 4 290 6 371 7 4289 11 4158 10 4187 8 398 12 388 13 401 36 426 37 482 35 440 15 508
4508 1.08063 -0.755066 5.66822 140 134 122 1.57625 4 5015 5 4861 7 4287 11 4156 6 365 10 4184
4507 1.07039 -0.699769 5.71522 176 173 168 1.09217 4 355 5 388 6 370 7 4288 11 4155 10 4183 2 310 1 4184 3 4190
4506 0.976778 -0.765767 5.64122 184 181 176 1.08774 4 4957 5 4804 6 4321 7 4283 11 4152 10 4180
4505 0.954542 -0.823415 5.64311 196 197 191 1.06216 4 283 5 4802 6 4319 7 4281 11 4149 10 4176 21 4219 22 4225 20 4091 18 3065 19 3003 16 2515 17 2510
4504 0.915815 -0.831627 5.64858 162 159 150 1.28311 6 4264 7 347 11 4147 12 378 13 389 36 415 37 462 35 431 14 414 15 496
4503 0.843854 -0.839723 5.64487 29 27 27 1.30852 4 4950 5 4799 6 4263 7 4221 11 4143 10 4172 21 6949 22 7022 20 6873 18 5063 19 4948 16 4121 17 4075 9 380 12 371 13 383
4502 0.739809 -0.829733 5.64895 179 178 174 1.72194 4 271 5 4791 6 275 7 4270 11 4139 10 4169 21 6947 22 7019 20 6869 19 4944 9 377 12 4113 13 4136 8 390 36 411 37 400 35 427 14 413 15 429
4501 0.341547 -0.758197 5.76638 209 211 206 1.36918 4 327 5 371 6 340 7 329 11 4129 10 4154
4500 -0.100414 -0.779322 5.91489 152 141 143 1.51249 6 4297 7 6797 11 4121 21 7052 10 294 22 4361 20 4216 18 5144 19 4983 16 4239 17 2701 13 371
4499 -0.113291 -0.910075 5.89993 124 110 109 1.42068 4 4922 5 291 6 4243 7 4202 11 4119 10 4147 22 7064 21 4258 20 4125 18 3113 19 3055
4498 -0.128704 -0.879844 5.90219 137 125 125 1.98847 4 4923 11 4118 10 292 5 292
4497 -0.385136 -0.835127 5.74672 107 89 87 1.4119 4 4919 5 290 6 323 7 304 11 4117 10 290 21 6994 22 4262 20 4121 18 3107 19 3049 14 367
4496 -1.11024 -0.924258 6.13476 220 208 220 1.16149 4 4912 5 4754 6 4233 11 4108 7 4194 10 4138
4495 1.49801 -0.85993 5.8445 117 101 86 0.891839 4 4968 5 338 6 302 7 289 11 4096 10 4131
4494 1.5484 -0.88578 5.88707 21 7 5 1.00644 7 4231 11 4095 4 4971
4493 1.41796 -0.936038 5.77637 114 101 84 1.20374 5 4744 6 4278 7 4229 11 4094 21 6960
4492 1.40921 -0.949517 5.75927 113 100 83 0.631952 4 4902 11 4093 10 4129
4491 1.38921 -0.92864 5.7272 184 181 174 1.23992 5 265 6 297 11 4092 21 4228 22 4233 18 3034 19 2964 16 2522 17 2520
4490 1.35043 -0.948248 5.71835 145 139 127 1.26949 4 232 5 4743 6 4277 7 4228 11 4091 10 4128 14 429 15 449
4489 1.28529 -0.840742 5.69525 203 202 197 0.790357 6 299 11 4090 4 4961 10 4127
4487 0.89421 -0.865229 5.6291 166 163 156 1.58993 4 277 5 317 6 287 7 283 11 4086 10 261
4486 0.895291 -0.865573 5.63014 166 163 156 1.36725 7 282 11 4085 4 276 5 316 6 286 10 260 21 4216 22 4223 20 4089 18 397 19 415 16 2512
4485 0.842668 -0.985554 5.61897 158 154 145 1.21643 4 226 5 257 6 282 7 278 11 4082 10 255 21 4159 22 4172 18 3024 19 2952 16 4120 17 4074
4483 0.430085 -0.903685 5.70726 214 217 212 1.48966 1 189 4 4932 11 4078 10 4113 26 150 25 153
4482 0.410377 -0.896194 5.69499 190 191 185 1.04911 5 4773 6 4251 11 4077 10 4109
4481 0.404622 -0.968319 5.72161 177 177 169 1.3378 4 217 5 243 6 269 7 270 11 4076 10 250 20 379 22 388 21 393 19 405
4480 0.148003 -1.02358 5.84259 123 110 104 1.70574 4 4886 5 4732 6 4205 7 4173 11 4072 10 4105
4479 -0.503168 -0.969033 5.70902 139 127 129 0.657827 3 226 11 4070 21 4194 22 4207 20 4072 18 3050 19 2981 16 2535 17 2539
4478 -0.666733 -0.97463 5.69999 143 124 143 1.44326 7 4197 11 4069 4 4881 5 4728 6 4236 10 4101 21 4190 22 7010 20 6861 18 365 19 383 16 299 17 292
4477 -1.00755 -1.05479 6.05564 195 181 198 1.28924 6 6870 7 6741 11 4068 4 7886 5 7737 10 4098
4476 -1.06912 -1.16052 6.16625 38 26 36 2.07965 5 9298 11 4065 4 9434 6 8213 10 4095 3 8557 26 7611 25 7699
4475 -1.1318 -1.12356 6.12608 183 169 184 1.22056 5 7736 7 6740 11 4064 10 4094
4472 1.40101 -0.991488 5.73821 116 104 88 0.785382 4 4900 6 4275 11 4058 10 4089
4471 1.4255 -1.05855 5.75927 158 151 141 0.833822 4 231 5 264 6 245 7 236 11 4057 10 4087
4470 1.38488 -1.10695 5.75862 116 104 89 0.951056 4 202 5 221 6 243 7 234 11 4056 10 225 22 335 20 4054 21 4164
4469 0.955742 -1.05044 5.62168 140 133 122 1.08913 4 225 5 254 6 238 7 230 11 4054 10 219 21 6924 22 6996 20 6847 18 5025 19 4911 16 5278 21 8755 22 8860 17 4050 17 5230 9 339 12 4080 8 6430 36 5133 37 7866 12 6403 13 6409 35 5199 35 7907 14 5169 14 7912 33 5159 34 5064 34 7965
4468 0.923841 -1.0243 5.60712 132 126 112 0.898986 5 256 6 4219 11 4053 7 231 10 4085 21 4161 22 4174 18 5024 19 4910 16 4085 17 4049 12 320
4467 0.923 -1.02317 5.59986 132 126 112 1.2257 5 255 6 4218 11 4052 7 232 10 4084
4466 0.932326 -1.08622 5.57264 152 146 132 1.12778 4 4871 5 4714 6 237 7 229 11 4050 10 4082
4465 0.824148 -1.00188 5.60604 153 149 138 1.41021 4 4892 5 4739 6 4215 7 4180 11 4049 10 4079
4464 0.860181 -1.09048 5.59627 198 198 190 1.23354 4 4869 5 213 6 234 7 226 11 4048 10 4078
4463 0.373623 -1.18978 5.74961 184 185 177 0.412477 7 4147 11 4046 10 4043
4462 -0.255083 -1.11023 5.91372 54 36 34 1.53459 5 4730 11 4043 10 4071 21 4198 22 4210 20 4075 19 2984
4461 -0.247999 -1.16367 5.95049 55 42 42 1.41453 5 4703 11 4042 4 4858 7 4169 10 4070 9 330 8 353 13 4064
4459 -0.334899 -1.19632 5.81444 60 46 43 1.50746 4 4857 6 4177 7 168 11 4040 10 4069 22 6990 20 6839 21 6917 18 5019 19 4903 16 4106
4458 -0.677931 -1.10892 5.49216 131 109 111 1.4508 5 4699 7 4161 11 4036
4457 -0.697772 -1.14769 5.42336 164 152 151 0.842611 4 179 11 4035 21 4141 22 308 16 4071
4456 -0.906809 -1.18791 5.8601 169 157 159 1.38971 6 6840 7 6722 11 4033
4454 -1.17074 -1.26716 6.04943 228 221 229 0.959333 5 4694 6 4170 11 4031 21 6938 22 7008 20 6859 18 5039 19 4928 16 4136 17 4091
4453 -1.16028 -1.30089 6.01849 227 222 228 1.08316 4 4848 5 4693 6 4171 11 4030 10 4061 21 6937 22 7007 20 6860
4450 1.39694 -1.15629 5.80679 109 97 81 1.25315 4 200 5 4715 6 242 7 233 11 4024 10 4056
4449 1.40005 -1.26945 5.86664 122 113 99 0.970304 4 165 7 197 11 4023 10 4054
4448 1.04951 -1.25618 5.6693 157 154 145 1.48304 4 161 5 178 6 4188 7 186 11 4020 10 4050 9 284 12 4028 13 4039 8 308 36 5114 37 5170 35 5169 14 5137 15 5094 33 5111 34 5021
4447 0.964106 -1.19646 5.59962 138 130 117 2.90008 4 191 5 210 11 4019
4446 0.879419 -1.18711 5.60095 175 175 166 1.09376 4 4867 5 4709 6 4187 7 4149 11 4017 10 4048
4445 1.01312 -1.25335 5.64276 131 127 116 1.22298 4 160 5 177 6 197 7 185 11 4016 10 4047 21 4117 20 4021 22 4132
4444 0.843803 -1.16131 5.59157 174 170 161 1.15154 4 190 5 208 6 195 7 179 11 4015 10 4046
4443 0.319856 -1.21457 5.77805 223 224 219 1.16228 4 4861 5 4705 6 4182 7 4146 11 4009 10 4042
4442 0.341512 -1.301 5.77025 222 223 218 1.25941 4 142 5 157 6 184 7 170 11 4006 10 4038
4441 -0.810263 -1.23354 5.32185 184 173 177 1.69783 4 4825 6 171 7 166 11 3998 5 4673 10 162 21 4095 22 4100 26 3426 25 3508 24 7712 27 7180 19 2832 18 4970 30 158 31 168 32 164 16 4031
4439 1.01723 -1.29242 5.63854 148 142 129 1.47838 4 4838 5 174 7 182 11 3987 10 4024
4438 0.886305 -1.38072 5.67786 197 197 189 0.774617 5 4684 6 151 11 3984 7 4122 10 4023
4437 0.886305 -1.38072 5.67786 197 197 189 0.774617 5 4685 6 152 7 4123 11 3983 10 4022
4436 0.581943 -1.35253 5.69245 198 197 192 1.75172 4 151 5 167 6 145 7 144 11 3981
4435 0.498598 -1.34052 5.73189 192 192 184 1.76874 4 148 5 164 6 143 7 4121 11 3980 10 4020
4434 0.467035 -1.36397 5.75274 234 235 230 1.16199 4 147 5 160 6 141 7 142 11 3979 10 4018
4433 0.257502 -1.40829 5.99959 176 174 168 2.03827 4 141 11 3977 5 156 7 138
4432 -0.162414 -1.43731 5.70976 62 43 39 1.30007 5 119 11 3972 7 134 4 101 10 4006
4431 -0.17009 -1.46097 5.67846 111 92 88 1.62609 11 3971 6 96 5 118 10 133 4 4807
4430 -0.537834 -1.40737 5.23021 149 134 132 1.8293 4 4805 11 3968 10 4002 21 172 22 4056 20 166 18 110 19 124 16 62 17 58 9 275 12 166 13 174
4429 -1.30303 -1.61561 6.08569 83 33 36 0.649625 6 6802 7 4090 11 3967 10 3998
4428 1.08439 -1.53519 5.87226 77 28 11 0.719025 4 4812 6 4145 11 3966 5 138 10 3995
4427 0.81143 -1.57211 5.81083 122 70 36 1.45973 5 4663 6 4142 7 4102 4 4797 12 186 13 201
4426 -0.0516282 -1.635 5.844 83 59 57 1.33273 4 83 5 97 7 107 11 3959 6 92 10 3987 22 4065 20 180 21 190 18 173 19 177
4425 -0.147608 -1.61662 5.65386 79 56 50 1.63852 4 4793 6 4127 7 4096 11 3958 10 3986
4424 -0.358257 -1.50924 5.40934 102 87 82 1.59864 4 98 6 90 7 105 11 3956 5 116 10 3984 21 4009 22 4021 20 3921 18 2879 19 2798 16 2379 12 175 36 224
4423 -0.349787 -1.55354 5.41328 131 125 123 1.91036 4 4792 6 4134 7 4095 11 3955 5 7666 10 3982 20 6746 9 222 12 171 13 181 8 236 14 205 35 185 36 177 15 215 33 164 34 154 37 211
4422 -0.504225 -1.56134 5.27172 136 120 120 1.79501 6 72 7 4082 11 3951 5 87 10 96 21 4004 22 4015 20 3914 18 2844 19 2768 16 2357 17 2332 12 162 13 169 36 172 35 180 14 195 37 201
4421 -0.52195 -1.56253 5.25865 110 90 89 1.9219 4 4789 6 71 11 3950 5 4645 12 161 8 230 14 194
4420 -1.39761 -1.8068 6.20964 151 85 51 1.69005 6 4117 11 3949
4419 -0.0545952 -1.70645 5.84263 123 105 103 1.59913 4 82 6 4128 7 89 11 3940 5 95 10 3964 20 3965 12 138 9 185 13 132 8 199 14 217 36 232 15 221
4418 -0.251083 -1.66228 5.51039 141 126 123 1.60257 4 4790 6 4123 7 4084 11 3938 5 4646 10 3962
4417 -0.449749 -1.69624 5.35927 98 74 72 1.45818 4 59 6 73 7 82 11 3936
4416 -0.414071 -1.77935 5.4422 142 121 123 1.46337 4 58 6 4108 7 62 11 3935 5 4632
4415 -0.519155 -1.72306 5.32221 184 177 182 1.93332 6 4106 7 59 11 3934 4 4776 5 4630
4414 -2.92389 -2.05825 5.88624 168 114 76 1.78331 4 42 6 4088 7 36 11 3929 20 3902 18 2909 19 2823
4413 -3.81087 -2.11513 5.80192 187 139 99 2.23542 11 3928 24 9707 26 5592 25 5666 23 11002
4412 -0.420545 -1.93045 5.6578 105 48 25 2.43643 5 7648 7 8047 11 3924 4 7789 4 9387 10 3948 6 4107
4411 -0.483263 -1.78478 5.39272 167 152 157 2.17389 6 4105 7 4069 11 3922 4 4775 5 4631 10 3947
4410 -2.22591 -2.28401 5.82523 181 142 113 2.06449 4 4751 6 4075 7 4046 5 4607 10 3939 21 3976 22 3987 20 3877 18 2836 19 2762 16 4016 17 3984
4408 -1.03259 -2.39617 5.89328 152 93 53 1.3524 4 4744 7 4033 11 3910 10 3932
4406 3.40062 2.13516 5.28456 128 116 92 2.25144 7 4022 11 3891 5 4062
4405 3.40214 2.13699 5.28715 128 116 92 2.02865 7 4021 11 3890 10 6543 5 4063
4404 2.4381 2.05814 5.25875 127 113 87 1.39018 7 4009 11 3873 5 4017 10 3889
4403 2.36492 2.06288 5.25128 134 118 95 1.89312 6 4033 11 3872 4 4163
4402 2.26382 2.04013 5.19354 136 122 96 1.46539 7 4006 11 3870 5 4005 10 3885
4401 1.20798 1.96764 5.1871 132 111 80 0.437414 4 4104 5 3946 6 3800 7 3799 11 3862 10 6523
4400 0.890674 1.95339 5.16055 182 171 151 0.479827 6 3788 11 3855 10 3867
4399 0.819296 1.9529 5.15318 119 103 70 0.597788 6 3780 11 3854 5 3935 7 3777 10 3865
4398 0.237239 1.92372 5.15701 182 173 153 1.68025 5 3900 7 3751 11 3838 10 6509
4397 0.153524 1.90945 5.12773 148 131 103 0.877689 4 4039 5 3899 11 3835
4396 -0.0739939 1.91417 5.1253 191 182 164 0.537032 5 3880 6 3722 11 3829 10 3843
4395 -0.701047 1.86629 5.07113 191 182 165 0.859468 4 3990 5 3842 7 3702 11 3821 6 3688 10 3581
4394 -0.718655 1.86133 5.06225 148 128 104 0.302354 4 3989 5 3841 6 3684 7 3701 11 3819 10 3580
4393 -0.923577 1.85931 5.05721 190 181 164 0.889908 4 3974 5 3824 7 3681 11 3818 10 3568
4392 -1.19418 1.85293 5.01847 195 186 169 0.528732 6 6472 11 3811 4 7201 5 7087 7 6367 10 6493
4391 -1.51047 1.85004 5.00528 211 202 187 1.05442 4 3944 5 3792 11 3807 6 6461 7 3650 10 3814
4390 -1.51111 1.85062 5.0071 211 202 187 1.1137 4 3943 11 3806 5 3791 6 6460 10 3813
4389 -1.7476 1.83782 5.00235 209 203 189 0.355906 4 3926 11 3804 10 3526
4388 -1.7476 1.83782 5.00235 209 203 189 0.355906 4 3927 11 3803 10 3525
4387 -1.84689 1.83047 4.99958 159 143 117 0.655079 4 3923 5 3775 6 3629 7 3636 11 3802
4386 -1.97709 1.84484 4.96398 163 149 122 1.05844 2 4024 11 3799 10 3808 4 3914 5 3767
4385 -2.31904 1.82076 4.91499 157 140 113 0.948754 4 3888 5 3747 6 3599 7 3612 11 3792 10 3804
4384 -2.32311 1.80955 4.93543 193 185 166 1.28564 4 3887 6 3598 7 3611 11 3791 10 3490
4383 -2.48237 1.80821 4.87997 123 98 68 2.01512 4 3878 5 3737 6 3587 7 3601 11 3790 10 3799
4382 -2.55187 1.80014 4.87304 201 194 176 1.94108 5 3736 6 3585 7 3598 11 3789 10 3797
4381 -2.5502 1.79873 4.87023 201 194 176 1.93129 4 3876 5 3735 6 3586 7 3597 11 3788 10 3796
4379 -2.77161 1.79087 4.85061 191 184 166 2.01545 6 3567 11 3786 10 3465
4375 3.45971 2.12871 5.33576 94 74 49 1.80561 7 3896 11 3774 6 3906 10 3790 4 4218 5 4066
4374 3.47427 2.12055 5.38451 102 82 58 1.90732 6 6657 7 6548 11 3771 10 6467 5 7232
4373 3.47613 2.0943 5.43609 152 144 123 1.6145 6 3899 7 3895 11 3768 4 3796 5 3658 10 3787
4372 3.39001 2.12081 5.30822 109 95 66 0.647568 6 3896 11 3764 10 3784
4371 3.37609 2.11898 5.36959 94 73 54 1.55151 6 3895 11 3763 10 6461 5 4059
4370 3.30954 2.12794 5.31999 159 152 136 1.85977 6 4054 11 3762 7 4019 10 3782 4 4211
4369 3.14433 2.10893 5.27921 120 108 82 2.03914 6 4051 11 3761 7 4017 10 3904 4 4202
4368 3.15456 2.09913 5.33794 108 89 59 1.91817 7 3882 11 3760 6 6645 5 4049 10 6456 4 4201
4367 3.27519 2.09061 5.40767 116 101 71 1.67992 6 3890 7 3885 11 3759 5 3650 4 3788
4366 3.27519 2.09061 5.40767 116 101 71 1.67992 6 3889 7 3884 11 3758 5 3649 4 3787
4365 2.9129 2.04569 5.35439 120 106 79 1.07127 6 3880 11 3749 10 3766
4364 2.76317 2.08008 5.31669 97 82 49 1.2342 6 3877 11 3745 5 4029 4 4179 10 3764
4363 2.7857 2.03162 5.41575 118 102 77 1.98327 6 6620 7 3855 11 3744 10 3762 5 6937 4 3760
4362 2.56317 2.02588 5.35268 130 115 86 1.00706 6 3862 11 3741 4 3754
4361 2.54355 2.02578 5.31781 118 103 72 0.177618 6 3865 11 3740
4360 2.53648 2.0199 5.30208 118 103 72 0.9514 6 3864 11 3739 10 3758
4359 2.61663 1.97598 5.3989 133 117 92 0.602088 6 3861 11 3735
4358 2.48242 2.0137 5.32801 145 130 108 0.991616 6 3860 7 3851 11 3732 4 3752 10 3755
4357 2.42393 2.0332 5.26554 130 116 90 0.975897 6 3863 7 3852 11 3731 5 4015 10 6416
4356 2.43135 1.98709 5.39297 126 109 81 1.4484 6 3855 7 3842 11 3727 4 3743 5 3615 10 3751
4355 2.26759 1.99512 5.31084 177 167 149 0.371006 6 3853 11 3724 10 3745
4354 2.40894 1.99186 5.37462 163 152 134 1.05569 7 3843 11 3723 10 3744
4353 2.34915 1.98316 5.39571 111 91 66 0.969254 7 3841 11 3722 4 3739
4352 2.17661 2.02935 5.23667 136 122 93 0.854563 4 4153 11 3719 5 3999
4351 2.18269 2.01776 5.25961 157 146 125 0.837601 4 4152 11 3718 6 3852 7 3839
4350 2.18312 1.99041 5.29436 124 107 79 0.26943 6 3844 11 3712 10 3737
4349 2.17161 1.99665 5.30779 180 168 156 1.27359 6 3849 7 3836 11 3711 5 3609 10 3735
4348 2.24054 1.95988 5.42758 173 166 148 1.09033 6 3457 7 3833 11 3706 4 3729
4347 2.18219 1.95208 5.38316 160 149 129 0.337056 6 3843 11 3704 10 3730
4346 1.96918 1.98259 5.27863 125 110 81 0.665412 7 3829 11 3701 10 3725
4345 1.96918 1.98259 5.27863 125 110 81 0.665412 7 3830 11 3700 10 3726
4344 2.08585 1.97051 5.334 166 155 137 1.43115 6 3839 11 3699 4 3725 5 3600 10 6403
4343 1.88259 1.99298 5.22696 175 165 145 0.846884 4 4145 7 3827 11 3695 5 7186 10 3719
4342 1.8393 1.98925 5.24174 180 173 157 0.885405 4 4143 6 3836 7 3825 11 3693 5 3986 10 3718
4341 1.88052 1.97014 5.30957 145 131 105 0.719678 5 3593 11 3692 10 3715
4340 1.92972 1.96775 5.31287 168 157 137 1.32656 6 3835 11 3690 5 3594 7 3824 10 6399
4339 1.77377 1.98202 5.25336 129 114 87 1.04884 4 4136 6 3833 11 3688 10 3713
4338 1.73338 1.98695 5.23513 134 120 94 0.788444 7 3821 11 3686 4 7307 5 3977 10 3712
4337 1.69089 1.97883 5.27175 168 155 138 1.09473 4 4130 6 3828 7 3816 11 3685 5 3971 10 3708
4336 1.63109 1.92748 5.3436 140 123 95 1.22642 6 3814 11 3680 10 3701
4335 1.6319 1.92952 5.34795 140 123 95 1.12974 4 3703 6 3813 7 3811 11 3679 10 3700
4334 1.49716 1.96888 5.23603 135 118 90 0.886775 4 4119 6 3816 7 3813 11 3678 10 3699
4333 1.52537 1.92944 5.35942 165 150 127 1.33115 4 3701 5 3574 6 3811 7 3808 11 3677 10 3695
4332 1.23457 1.94759 5.18056 152 137 108 0.710499 7 3800 11 3671 10 3684
4331 1.22411 1.96369 5.21911 182 171 154 1.3101 6 3799 7 3798 11 3670 5 3945 10 6367
4330 1.21775 1.94649 5.24201 136 120 90 0.496877 4 4103 5 3943 6 3797 7 3797 11 3669
4329 1.21738 1.94584 5.2404 136 120 90 0.446105 4 4102 6 3798 7 3796 11 3668 5 3944 10 3683
4328 1.11711 1.94279 5.18252 164 152 128 0.542941 6 3793 7 3793 11 3667 10 3682
4327 1.00799 1.93621 5.20053 180 167 148 0.422228 4 4089 6 3790 7 3791 11 3661 10 3678
4326 0.95926 1.93962 5.24636 136 112 78 1.03744 4 4087 11 3656 5 3938 6 6565 7 3787
4325 0.963145 1.92642 5.25955 191 180 162 0.581951 6 3786 11 3655 10 3670
4324 0.963145 1.92642 5.25955 191 180 162 0.581951 6 3787 11 3654 10 3669
4323 0.931977 1.92544 5.22781 177 164 145 0.410953 4 3680 5 3553 6 3785 7 3781 11 3653
4322 0.916984 1.91185 5.267 193 181 165 0.646085 4 3679 5 3550 6 3782 7 3780 11 3652 10 3666
4321 0.908917 1.90156 5.3106 166 152 131 0.408312 7 3779 11 3650 10 3665
4320 0.841883 1.91337 5.25737 118 97 68 0.42643 7 3775 11 3648 10 3663
4319 0.817275 1.90226 5.24646 185 174 156 0.493313 4 3673 11 3647 10 6344
4318 0.776353 1.90493 5.28273 175 162 144 0.440161 6 3775 11 3645 10 3659
4317 0.82341 1.86747 5.34816 148 131 105 0.660009 5 3542 6 3411 11 3643 10 3660
4316 0.713187 1.86098 5.33073 142 125 95 0.801196 4 3663 6 3402 7 3410 11 3640 10 3653
4315 0.547537 1.89303 5.24054 191 182 166 0.0640073 4 3657 7 3762 11 3632
4314 0.48307 1.89725 5.21347 135 114 83 0.0993478 7 3761 11 3630 10 3645
4313 0.563763 1.87517 5.30767 188 177 161 1.16799 5 3528 7 3400 11 3629 6 3394 4 3655 10 3643
4312 0.5118 1.85887 5.30436 144 124 97 1.43749 4 3653 7 3399 11 3628 5 3526 6 3393 10 3642
4311 0.430194 1.87799 5.24303 169 154 127 0.291892 4 3651 5 3524 6 3756 7 3759 11 3626 10 3636
4310 0.34817 1.88642 5.21449 199 188 170 0.494642 4 3650 5 3523 6 3751 11 3621 10 3637
4309 0.34817 1.88642 5.21449 199 188 170 0.494642 4 3649 5 3522 6 3750 11 3620 10 3638
4308 0.258676 1.87965 5.21093 132 117 87 0.376995 4 3642 5 3513 6 3739 7 3748 11 3619 10 3634
4307 0.186372 1.89243 5.15067 178 167 149 0.226003 4 4040 5 3898 6 3738 7 3750 11 3618 10 3632
4306 0.163281 1.87879 5.17373 197 190 172 0.455048 4 3641 6 3737 7 3746 11 3617 10 3631
4305 0.265889 1.84772 5.29563 201 194 177 0.138871 5 3512 11 3613 10 3629
4304 0.151677 1.86433 5.23069 182 173 156 0.386793 7 3744 11 3612 10 3626
4303 0.202208 1.83023 5.30706 127 108 78 0.35984 4 3635 5 3506 6 6260 7 3383 11 3611 10 3240
4302 0.138286 1.87376 5.15613 167 155 129 0.788656 4 3640 6 3736 7 3745 11 3610 10 3628
4301 0.116184 1.86756 5.20527 135 114 86 0.397796 4 3630 5 3502 6 3727 7 6429 11 3609 10 3627
4300 0.0162363 1.88609 5.16241 175 164 146 0.523746 4 4027 5 3886 6 3726 7 3737 11 3608 10 6312
4299 0.0975192 1.84291 5.25466 113 97 64 0.091888 4 3629 11 3606 10 3625
4298 0.0974672 1.84308 5.25607 113 97 64 0.304991 4 3628 5 3500 6 3377 7 3380 11 3605 10 3624
4297 0.0135805 1.85055 5.21908 157 136 107 0.497454 4 3626 5 3498 6 3725 7 3736 11 3604 10 6307
4296 0.0415613 1.8373 5.26594 186 174 155 0.278021 5 3495 7 3378 11 3603 10 3621
4295 0.022666 1.83732 5.26886 138 119 86 0.660781 4 3621 6 3375 7 3377 11 3602
4294 0.022666 1.83732 5.26886 138 119 86 0.660781 4 3622 6 3374 7 3376 11 3601
4293 -0.0635796 1.87651 5.17641 156 135 108 0.557878 4 3619 5 3492 7 3732 11 3598 10 3619
4292 -0.0814352 1.85655 5.2138 159 142 114 0.491946 4 3616 5 3488 6 3717 7 6421 11 3596 10 3611
4291 -0.118155 1.87318 5.18504 188 177 159 0.921181 4 3617 5 3489 11 3595 10 3616
4290 -0.150489 1.85488 5.18328 144 127 99 0.787562 5 3487 6 3716 7 3729 11 3589 10 3608
4289 -0.180966 1.83289 5.23539 190 178 163 0.777106 4 3610 5 3478 6 3357 7 3364 11 3585 10 3604
4288 -0.143032 1.8253 5.26048 189 177 164 0.320542 4 3612 5 3483 6 3365 7 3369 11 3584 10 3605
4287 -0.261759 1.87271 5.12215 189 176 160 0.606825 4 4017 6 3709 7 3726 11 3582 10 3603
4286 -0.303342 1.84326 5.19448 194 183 167 0.569658 6 3707 11 3581 5 6842
4285 -0.369163 1.81479 5.2617 186 175 157 0.662436 4 3599 5 3470 6 3347 7 3359 11 3575 10 3597
4284 -0.521588 1.83111 5.1892 190 183 166 0.510348 4 3595 5 3465 6 3343 7 3710 11 3571 10 3594
4283 -0.614202 1.83862 5.13512 199 190 174 0.839482 4 3589 5 3451 6 3686 7 3699 11 3563 10 3589
4282 -0.654099 1.82782 5.16338 198 189 172 0.591112 4 3588 5 3450 6 3685 7 3698 11 3562 10 3584
4281 -0.573277 1.7942 5.2603 160 143 117 0.755362 4 3590 5 3454 6 3341 7 3352 11 3560
4280 -0.680228 1.80442 5.22296 194 181 163 1.04494 4 3587 5 3449 6 3332 7 3347 11 3559 10 3582
4279 -0.710414 1.83265 5.15562 120 90 64 0.994723 6 3682 7 3695 11 3558 10 3578
4278 -0.710414 1.83265 5.15562 120 90 64 0.994723 6 3683 7 3694 11 3557 10 3579
4277 -0.755024 1.79437 5.19323 164 149 120 0.828126 4 3582 5 6812 6 3331 7 3346 11 3555 10 3575
4276 -0.758337 1.78732 5.22856 163 148 119 0.801377 4 3581 5 3442 6 3330 7 3345 11 3554 10 3576
4275 -0.796066 1.79326 5.21329 198 187 169 1.20939 4 3579 6 3321 11 3552 10 3571
4274 -0.859335 1.81061 5.13192 197 186 168 0.548585 6 3318 7 3684 11 3549 10 3564
4273 -0.873782 1.78213 5.24137 171 147 121 0.701417 4 3571 6 3315 7 3330 11 3547 10 3172
4272 -0.873782 1.78213 5.24137 171 147 121 0.701417 4 3572 6 3314 7 3329 11 3546 10 3171
4271 -1.08159 1.83613 5.08516 158 134 110 0.561974 4 3557 5 3814 6 3660 7 3667 11 3543 10 3556
4270 -1.05833 1.8323 5.10955 151 130 102 0.706679 4 3559 5 3432 6 3662 7 3666 11 3542 10 3558
